VERSION .7
FIELDS x y z rgb
SIZE 8 8 8 8
TYPE I I I I
COUNT 1 1 1 1
WIDTH 2436
HEIGHT 1
VIEWPOINT 0 0 0 1 0 0 0
POINTS 2436
DATA ascii
101 586 171 65280
116 588 173 65280
130 585 173 65280
145 582 173 65280
159 578 173 65280
167 555 167 65280
184 560 170 65280
199 560 171 65280
218 569 176 65280
255 619 193 65280
84 689 186 65280
90 613 166 65280
106 615 168 65280
118 598 164 65280
134 600 165 65280
147 591 164 65280
161 588 164 65280
167 555 155 65280
184 560 158 65280
204 574 164 65280
215 560 161 65280
243 591 172 65280
80 655 164 65280
93 633 159 65280
105 610 154 65280
115 583 147 65280
128 575 146 65280
145 582 149 65280
159 578 149 65280
169 560 145 65280
187 569 149 65280
201 565 149 65280
216 564 150 65280
243 591 159 65280
290 658 179 65280
84 860 197 65280
80 655 150 65280
95 647 149 65280
102 591 137 65280
115 583 135 65280
127 570 133 65280
142 572 134 65280
159 578 137 65280
170 564 134 65280
185 565 135 65280
196 551 133 65280
215 560 137 65280
230 559 138 65280
76 776 162 65280
82 674 141 65280
96 652 137 65280
103 601 126 65280
117 593 125 65280
130 585 124 65280
145 582 124 65280
159 578 124 65280
170 564 122 65280
187 569 124 65280
199 560 123 65280
216 564 125 65280
249 605 136 65280
312 709 161 65280
71 967 181 65280
65 666 125 65280
77 635 119 65280
94 643 121 65280
105 610 116 65280
119 603 115 65280
130 585 112 65280
146 587 113 65280
159 578 112 65280
170 564 110 65280
187 569 112 65280
202 569 113 65280
220 574 115 65280
236 573 116 65280
252 571 117 65280
289 615 127 65280
76 781 130 65280
81 665 111 65280
96 652 110 65280
106 615 104 65280
119 603 102 65280
130 585 100 65280
147 591 101 65280
160 583 100 65280
173 574 100 65280
187 569 100 65280
204 574 101 65280
204 532 95 65280
217 526 95 65280
234 530 96 65280
266 565 104 65280
331 661 123 65280
95 774 113 65280
96 652 96 65280
105 610 90 65280
119 603 89 65280
134 600 89 65280
149 601 90 65280
163 592 89 65280
173 574 87 65280
182 555 85 65280
191 536 83 65280
198 518 81 65280
215 522 82 65280
230 521 83 65280
253 538 86 65280
288 576 94 65280
319 600 99 65280
321 570 95 65280
123 1002 126 65280
97 662 83 65280
108 630 80 65280
124 627 80 65280
138 619 79 65280
149 601 77 65280
156 568 73 65280
161 536 70 65280
176 536 70 65280
189 532 70 65280
200 522 70 65280
215 522 70 65280
228 516 70 65280
240 511 70 65280
241 482 67 65280
241 454 64 65280
252 448 64 65280
266 446 65 65280
301 478 70 65280
120 977 102 65280
97 657 69 65280
108 630 66 65280
128 647 68 65280
138 619 66 65280
145 582 62 65280
142 515 55 65280
161 536 58 65280
178 541 59 65280
191 536 59 65280
200 522 58 65280
217 526 59 65280
228 516 59 65280
221 470 54 65280
214 429 50 65280
211 397 47 65280
225 400 48 65280
238 399 48 65280
253 401 49 65280
287 433 54 65280
120 816 69 65280
152 881 74 65280
160 809 69 65280
164 736 63 65280
158 635 54 65280
148 539 46 65280
166 550 48 65280
176 536 47 65280
189 532 47 65280
202 527 47 65280
213 517 46 65280
213 484 44 65280
206 438 40 65280
203 406 38 65280
213 401 38 65280
220 392 37 65280
240 403 39 65280
242 385 38 65280
271 408 41 65280
281 401 41 65280
176 790 50 65280
165 664 43 65280
151 549 35 65280
161 536 35 65280
176 536 35 65280
189 532 35 65280
197 513 34 65280
201 490 33 65280
197 448 30 65280
195 416 28 65280
205 411 28 65280
211 397 28 65280
215 383 27 65280
230 386 28 65280
239 380 28 65280
257 387 29 65280
278 397 30 65280
205 917 39 65280
163 654 28 65280
155 563 24 65280
169 560 24 65280
181 550 24 65280
189 532 23 65280
198 518 23 65280
196 476 21 65280
187 425 19 65280
197 420 19 65280
197 393 18 65280
197 370 17 65280
206 365 17 65280
222 373 18 65280
223 355 17 65280
249 374 18 65280
260 372 19 65280
196 878 18 65280
159 640 13 65280
159 578 12 65280
167 555 12 65280
182 555 12 65280
191 536 11 65280
193 504 11 65280
181 439 9 65280
187 425 9 65280
193 411 9 65280
188 375 8 65280
197 370 8 65280
208 370 8 65280
225 377 9 65280
231 368 9 65280
246 370 9 65280
260 372 9 65280
235 1053 0 65280
169 679 0 65280
159 578 0 65280
169 560 0 65280
184 560 0 65280
189 532 0 65280
179 466 0 65280
179 434 0 65280
185 420 0 65280
189 402 0 65280
197 393 0 65280
201 379 0 65280
206 365 0 65280
220 369 0 65280
229 363 0 65280
237 358 0 65280
243 348 0 65280
191 766 -16 65280
159 578 -12 65280
171 569 -12 65280
181 550 -12 65280
179 504 -11 65280
170 443 -9 65280
182 443 -10 65280
181 411 -9 65280
187 398 -9 65280
197 393 -9 65280
204 384 -9 65280
206 365 -8 65280
212 356 -8 65280
226 359 -8 65280
237 358 -9 65280
246 352 -9 65280
209 839 -36 65280
161 588 -25 65280
173 574 -25 65280
174 531 -23 65280
166 466 -20 65280
164 429 -19 65280
181 439 -19 65280
179 407 -18 65280
189 402 -18 65280
190 380 -17 65280
199 375 -17 65280
203 361 -17 65280
215 360 -17 65280
218 346 -17 65280
229 345 -17 65280
258 368 -18 65280
231 926 -59 65280
163 592 -38 65280
170 564 -37 65280
168 512 -33 65280
164 461 -30 65280
170 443 -29 65280
175 425 -28 65280
175 398 -27 65280
187 398 -27 65280
188 375 -26 65280
201 379 -26 65280
206 365 -26 65280
212 356 -26 65280
223 355 -26 65280
232 349 -26 65280
238 339 -26 65280
-379 1154 -101 65280
-358 1187 -103 65280
-327 1190 -103 65280
183 737 -63 65280
160 583 -50 65280
164 545 -47 65280
167 508 -44 65280
166 466 -41 65280
173 452 -40 65280
175 425 -38 65280
169 384 -35 65280
176 375 -34 65280
185 371 -34 65280
197 370 -35 65280
203 361 -34 65280
209 352 -34 65280
218 346 -34 65280
224 337 -33 65280
229 327 -33 65280
-407 1144 -127 65280
-374 1139 -125 65280
-355 1177 -128 65280
-326 1185 -128 65280
-299 1203 -129 65280
218 975 -104 65280
162 650 -70 65280
156 568 -61 65280
161 536 -58 65280
163 498 -54 65280
167 471 -52 65280
175 457 -51 65280
175 425 -48 65280
169 384 -43 65280
176 375 -43 65280
188 375 -43 65280
197 370 -43 65280
201 357 -42 65280
209 352 -42 65280
215 342 -42 65280
226 341 -42 65280
243 348 -44 65280
-412 1158 -154 65280
-379 1154 -152 65280
-352 1167 -152 65280
-329 1195 -155 65280
-299 1203 -155 65280
209 936 -120 65280
148 596 -77 65280
154 559 -72 65280
161 536 -70 65280
162 493 -65 65280
166 466 -62 65280
172 448 -60 65280
173 420 -57 65280
169 384 -52 65280
178 380 -52 65280
188 375 -52 65280
197 370 -52 65280
201 357 -51 65280
204 343 -50 65280
213 338 -50 65280
229 345 -52 65280
240 344 -52 65280
-405 1139 -176 65280
-373 1135 -174 65280
-351 1163 -177 65280
-323 1176 -178 65280
-30 1259 -184 65280
187 946 -140 65280
159 712 -106 65280
146 587 -88 65280
152 554 -83 65280
157 521 -79 65280
160 489 -75 65280
166 466 -72 65280
172 448 -70 65280
171 416 -65 65280
169 384 -61 65280
178 380 -61 65280
183 366 -59 65280
192 362 -59 65280
196 348 -58 65280
204 343 -58 65280
207 330 -56 65280
221 333 -58 65280
235 335 -59 65280
-389 1092 -193 65280
-366 1116 -195 65280
-345 1143 -199 65280
-308 1118 -193 65280
-268 1077 -185 65280
-244 1093 -186 65280
-219 1108 -188 65280
-191 1108 -187 65280
-174 1182 -199 65280
-127 1037 -174 65280
-93 950 -159 65280
-75 1032 -172 65280
-53 1088 -181 65280
-27 1129 -188 65280
0 1160 -193 65280
28 1159 -193 65280
55 1143 -190 65280
83 1141 -190 65280
111 1134 -190 65280
146 1191 -200 65280
168 1142 -192 65280
176 1019 -172 65280
186 941 -160 65280
147 658 -112 65280
145 582 -100 65280
154 559 -96 65280
157 521 -90 65280
160 489 -85 65280
167 471 -83 65280
172 448 -80 65280
167 406 -73 65280
169 384 -70 65280
178 380 -70 65280
181 362 -67 65280
187 353 -66 65280
193 344 -65 65280
204 343 -66 65280
207 330 -65 65280
213 320 -64 65280
238 339 -69 65280
-194 980 -187 65280
-146 989 -187 65280
-112 913 -172 65280
-91 935 -176 65280
-66 907 -170 65280
-43 893 -167 65280
-22 924 -173 65280
0 925 -173 65280
21 884 -165 65280
43 898 -168 65280
65 887 -166 65280
88 905 -170 65280
110 903 -170 65280
134 910 -172 65280
153 886 -168 65280
167 843 -161 65280
139 624 -119 65280
145 582 -112 65280
152 554 -107 65280
157 521 -102 65280
159 484 -95 65280
169 475 -94 65280
172 448 -89 65280
161 392 -79 65280
167 379 -77 65280
176 375 -77 65280
179 357 -74 65280
187 353 -74 65280
201 357 -76 65280
202 339 -74 65280
205 325 -72 65280
215 324 -73 65280
229 327 -74 65280
-137 929 -195 65280
-110 903 -189 65280
-85 875 -182 65280
-66 907 -189 65280
-43 893 -186 65280
-23 959 -199 65280
0 980 -203 65280
22 909 -189 65280
43 898 -187 65280
65 887 -185 65280
86 880 -184 65280
108 883 -185 65280
128 870 -182 65280
149 867 -182 65280
163 824 -174 65280
138 619 -132 65280
143 577 -123 65280
155 563 -121 65280
163 540 -117 65280
160 489 -107 65280
169 475 -104 65280
172 448 -99 65280
160 388 -87 65280
167 379 -86 65280
176 375 -86 65280
179 357 -83 65280
187 353 -83 65280
196 348 -83 65280
199 334 -81 65280
205 325 -80 65280
210 316 -79 65280
220 315 -80 65280
-104 848 -195 65280
-91 935 -214 65280
-71 977 -223 65280
-46 958 -219 65280
0 1020 -232 65280
22 914 -208 65280
44 913 -208 65280
64 882 -202 65280
85 870 -199 65280
106 863 -198 65280
125 850 -196 65280
146 847 -196 65280
162 819 -190 65280
142 639 -149 65280
142 572 -134 65280
158 573 -135 65280
163 540 -129 65280
160 489 -117 65280
169 475 -115 65280
166 434 -106 65280
160 388 -95 65280
161 365 -91 65280
170 361 -91 65280
176 353 -90 65280
180 339 -87 65280
191 339 -89 65280
194 326 -86 65280
205 325 -87 65280
213 320 -87 65280
229 327 -91 65280
22 939 -233 65280
45 933 -232 65280
68 927 -231 65280
90 925 -231 65280
110 903 -226 65280
130 885 -222 65280
148 857 -216 65280
168 848 -215 65280
153 688 -175 65280
139 557 -142 65280
155 563 -145 65280
167 555 -144 65280
159 484 -126 65280
161 452 -119 65280
157 410 -109 65280
160 388 -104 65280
161 365 -99 65280
168 357 -98 65280
174 348 -96 65280
178 335 -94 65280
186 331 -94 65280
192 322 -93 65280
202 321 -94 65280
210 316 -94 65280
220 315 -95 65280
-290 658 -193 65280
-281 684 -199 65280
-265 690 -199 65280
-251 706 -201 65280
-238 726 -205 65280
-213 708 -199 65280
19 799 -215 65280
40 819 -220 65280
62 847 -228 65280
81 835 -225 65280
104 853 -231 65280
131 890 -242 65280
149 867 -236 65280
176 892 -244 65280
183 819 -225 65280
140 562 -155 65280
154 559 -155 65280
169 560 -157 65280
162 493 -139 65280
159 447 -127 65280
148 387 -111 65280
156 379 -110 65280
161 365 -107 65280
166 352 -104 65280
170 339 -102 65280
180 339 -103 65280
186 331 -102 65280
194 326 -102 65280
197 313 -99 65280
210 316 -102 65280
229 327 -107 65280
-323 687 -219 65280
-308 699 -221 65280
-283 688 -215 65280
-268 700 -216 65280
-243 682 -209 65280
-231 702 -213 65280
-219 727 -219 65280
80 816 -237 65280
125 850 -248 65280
141 817 -239 65280
156 789 -232 65280
191 858 -254 65280
146 587 -174 65280
148 539 -161 65280
166 550 -166 65280
168 512 -156 65280
166 466 -143 65280
150 392 -121 65280
154 374 -117 65280
161 365 -115 65280
166 352 -112 65280
170 339 -109 65280
178 335 -109 65280
186 331 -109 65280
194 326 -109 65280
202 321 -109 65280
204 308 -106 65280
240 344 -121 65280
-286 572 -197 65280
-289 615 -210 65280
-288 654 -220 65280
-270 656 -219 65280
-249 648 -214 65280
-226 635 -208 65280
-237 721 -234 65280
127 739 -231 65280
133 671 -211 65280
178 800 -253 65280
164 659 -210 65280
144 525 -168 65280
163 540 -174 65280
167 508 -165 65280
166 466 -152 65280
163 424 -140 65280
156 379 -126 65280
161 365 -123 65280
168 357 -122 65280
172 344 -118 65280
176 331 -115 65280
184 326 -115 65280
192 322 -115 65280
202 321 -117 65280
204 308 -114 65280
229 327 -123 65280
-279 525 -195 65280
-250 500 -184 65280
-249 529 -192 65280
-256 580 -208 65280
-249 605 -215 65280
-229 597 -210 65280
-228 640 -223 65280
-15 639 -210 65280
0 625 -205 65280
16 679 -223 65280
34 714 -235 65280
50 688 -226 65280
68 701 -231 65280
89 729 -241 65280
99 672 -223 65280
172 693 -235 65280
143 520 -177 65280
157 521 -179 65280
151 460 -159 65280
149 419 -146 65280
155 406 -143 65280
150 365 -129 65280
155 352 -126 65280
166 352 -128 65280
170 339 -124 65280
178 335 -124 65280
181 322 -121 65280
189 317 -121 65280
202 321 -124 65280
207 312 -123 65280
246 352 -141 65280
-245 435 -174 65280
-241 454 -179 65280
-235 469 -183 65280
-242 515 -198 65280
-246 558 -212 65280
-236 573 -216 65280
-234 611 -228 65280
-17 719 -250 65280
0 610 -212 65280
14 579 -202 65280
28 584 -203 65280
41 558 -195 65280
56 577 -202 65280
75 615 -216 65280
88 598 -210 65280
111 645 -228 65280
188 756 -271 65280
156 568 -205 65280
151 502 -183 65280
143 436 -160 65280
139 390 -144 65280
145 378 -141 65280
152 369 -139 65280
149 338 -128 65280
159 339 -130 65280
167 335 -130 65280
173 326 -128 65280
181 322 -128 65280
186 313 -127 65280
191 304 -125 65280
218 329 -137 65280
252 360 -153 65280
-228 405 -171 65280
-237 445 -185 65280
-230 460 -189 65280
-139 506 -193 65280
-16 654 -241 65280
0 640 -235 65280
14 589 -217 65280
29 599 -220 65280
44 603 -222 65280
60 612 -226 65280
77 635 -235 65280
90 613 -228 65280
102 591 -220 65280
123 622 -233 65280
146 653 -246 65280
158 635 -241 65280
152 554 -211 65280
143 473 -182 65280
135 413 -160 65280
132 372 -145 65280
139 364 -143 65280
150 365 -145 65280
151 343 -138 65280
153 325 -132 65280
161 321 -132 65280
173 326 -136 65280
176 313 -132 65280
189 317 -136 65280
191 304 -132 65280
221 333 -147 65280
255 364 -163 65280
-238 399 -180 65280
-235 418 -186 65280
-215 406 -178 65280
-212 424 -184 65280
-159 447 -184 65280
-156 474 -193 65280
-138 459 -186 65280
-122 443 -178 65280
-114 460 -184 65280
-102 458 -182 65280
-93 470 -186 65280
-39 543 -211 65280
-27 559 -217 65280
-12 529 -205 65280
0 540 -209 65280
13 559 -217 65280
25 524 -203 65280
39 538 -209 65280
54 557 -217 65280
65 535 -209 65280
69 469 -184 65280
73 423 -166 65280
90 456 -180 65280
105 473 -187 65280
106 426 -170 65280
115 419 -168 65280
119 397 -160 65280
128 389 -158 65280
129 362 -149 65280
134 350 -145 65280
144 351 -147 65280
151 343 -145 65280
153 325 -139 65280
158 317 -137 65280
169 317 -139 65280
171 304 -135 65280
184 309 -139 65280
194 308 -141 65280
218 329 -153 65280
263 376 -178 65280
-225 377 -178 65280
-228 405 -189 65280
-192 362 -166 65280
-205 499 -219 65280
-164 429 -187 65280
-140 395 -170 65280
-131 398 -170 65280
-115 382 -162 65280
-108 395 -166 65280
-101 407 -170 65280
-92 414 -172 65280
-85 431 -178 65280
-78 453 -187 65280
-75 514 -211 65280
-70 575 -235 65280
-46 477 -195 65280
-29 398 -162 65280
-20 419 -170 65280
-10 419 -170 65280
0 430 -174 65280
10 419 -170 65280
20 414 -168 65280
31 433 -176 65280
42 437 -178 65280
49 406 -166 65280
57 390 -160 65280
67 389 -160 65280
74 377 -156 65280
88 395 -164 65280
93 373 -156 65280
102 371 -156 65280
108 358 -152 65280
118 360 -154 65280
127 357 -154 65280
132 345 -150 65280
137 332 -146 65280
145 329 -146 65280
155 330 -148 65280
156 312 -142 65280
171 322 -148 65280
174 309 -144 65280
184 309 -146 65280
194 308 -148 65280
213 320 -156 65280
266 380 -189 65280
-206 365 -178 65280
-178 335 -161 65280
-171 388 -180 65280
-144 351 -161 65280
-137 359 -163 65280
-130 367 -166 65280
-123 375 -168 65280
-112 373 -166 65280
-106 385 -170 65280
-96 388 -170 65280
-88 395 -172 65280
-80 407 -176 65280
-70 408 -176 65280
-62 425 -183 65280
-54 441 -189 65280
-38 393 -168 65280
-27 378 -161 65280
-19 399 -170 65280
-9 389 -166 65280
0 395 -168 65280
9 389 -166 65280
19 389 -166 65280
29 398 -170 65280
39 398 -170 65280
46 377 -161 65280
56 380 -163 65280
64 374 -161 65280
71 362 -157 65280
82 370 -161 65280
90 363 -159 65280
96 351 -155 65280
104 344 -153 65280
112 341 -153 65280
120 339 -153 65280
132 345 -157 65280
137 332 -153 65280
143 324 -151 65280
144 307 -144 65280
156 312 -149 65280
169 317 -153 65280
181 322 -157 65280
197 330 -163 65280
213 338 -170 65280
218 329 -168 65280
252 360 -187 65280
-153 347 -168 65280
-144 351 -168 65280
-139 364 -173 65280
-132 372 -175 65280
-120 365 -171 65280
-105 349 -162 65280
-100 366 -168 65280
-94 378 -173 65280
-83 375 -171 65280
-75 382 -173 65280
-67 389 -175 65280
-59 400 -180 65280
-49 401 -180 65280
-38 388 -173 65280
-27 378 -168 65280
-18 384 -171 65280
-9 379 -168 65280
0 385 -171 65280
9 379 -168 65280
18 379 -168 65280
27 378 -168 65280
36 373 -166 65280
43 357 -160 65280
54 366 -164 65280
64 374 -168 65280
69 353 -160 65280
77 346 -157 65280
87 349 -160 65280
95 347 -160 65280
102 339 -157 65280
107 327 -153 65280
117 329 -155 65280
127 331 -157 65280
133 323 -155 65280
139 315 -153 65280
144 307 -151 65280
156 312 -155 65280
166 313 -157 65280
176 313 -160 65280
189 317 -164 65280
205 325 -171 65280
226 341 -182 65280
260 372 -202 65280
-215 383 -203 65280
-147 333 -169 65280
-144 351 -176 65280
-134 350 -173 65280
-134 376 -185 65280
-118 360 -176 65280
-106 354 -171 65280
-99 361 -173 65280
-91 368 -176 65280
-82 370 -176 65280
-72 367 -173 65280
-64 374 -176 65280
-58 395 -185 65280
-46 377 -176 65280
-36 373 -173 65280
-27 373 -173 65280
-18 374 -173 65280
-8 364 -169 65280
0 370 -171 65280
9 374 -173 65280
18 374 -173 65280
27 369 -171 65280
35 358 -166 65280
43 352 -164 65280
53 361 -169 65280
62 364 -171 65280
68 348 -164 65280
74 331 -157 65280
85 344 -164 65280
94 342 -164 65280
99 330 -159 65280
110 337 -164 65280
115 325 -159 65280
121 317 -157 65280
129 314 -157 65280
137 311 -157 65280
144 307 -157 65280
152 304 -157 65280
164 309 -162 65280
164 291 -155 65280
176 296 -159 65280
202 321 -176 65280
237 358 -199 65280
263 376 -213 65280
-159 361 -190 65280
-146 355 -185 65280
-129 336 -173 65280
-125 353 -180 65280
-115 351 -178 65280
-106 354 -178 65280
-100 366 -183 65280
-90 363 -180 65280
-82 370 -183 65280
-71 362 -178 65280
-64 374 -183 65280
-58 395 -192 65280
-45 367 -178 65280
-34 353 -171 65280
-26 359 -173 65280
-17 364 -175 65280
-8 359 -173 65280
0 360 -173 65280
8 359 -173 65280
17 359 -173 65280
26 359 -173 65280
34 348 -168 65280
43 352 -171 65280
51 351 -171 65280
58 339 -166 65280
68 348 -171 65280
76 341 -168 65280
84 339 -168 65280
94 342 -171 65280
99 330 -166 65280
107 327 -166 65280
114 320 -163 65280
120 312 -161 65280
125 305 -158 65280
135 306 -161 65280
149 316 -168 65280
156 312 -168 65280
157 295 -161 65280
154 274 -151 65280
179 300 -168 65280
210 334 -190 65280
251 378 -219 65280
286 409 -240 65280
-144 351 -190 65280
-129 336 -180 65280
-120 339 -180 65280
-101 308 -162 65280
-102 339 -177 65280
-98 356 -185 65280
-89 359 -185 65280
-78 351 -180 65280
-72 367 -187 65280
-62 359 -182 65280
-55 375 -190 65280
-43 357 -180 65280
-33 338 -170 65280
-26 364 -182 65280
-17 349 -175 65280
-9 369 -185 65280
0 355 -177 65280
9 369 -185 65280
16 344 -172 65280
25 349 -175 65280
34 348 -175 65280
42 347 -175 65280
51 346 -175 65280
57 335 -170 65280
67 338 -172 65280
78 351 -180 65280
83 334 -172 65280
92 337 -175 65280
98 325 -170 65280
106 322 -170 65280
117 329 -175 65280
125 326 -175 65280
129 314 -170 65280
137 311 -170 65280
155 330 -182 65280
161 321 -180 65280
159 300 -170 65280
157 278 -160 65280
194 326 -190 65280
234 372 -220 65280
271 408 -245 65280
292 417 -255 65280
163 731 276 65280
168 674 255 65280
177 645 246 65280
208 689 265 65280
203 617 239 65280
337 818 325 65280
371 841 338 65280
376 800 325 65280
441 880 362 65280
455 856 357 65280
441 784 331 65280
463 777 333 65280
479 761 331 65280
498 749 331 65280
513 733 329 65280
-489 737 308 65280
-468 744 306 65280
-432 725 294 65280
-314 557 223 65280
-281 529 209 65280
-259 518 202 65280
-238 506 195 65280
-207 471 179 65280
-192 466 176 65280
-172 448 167 65280
-140 395 146 65280
-131 398 146 65280
-119 397 144 65280
-103 375 135 65280
-95 383 137 65280
-88 395 141 65280
-75 382 135 65280
-65 379 134 65280
-55 375 132 65280
-46 382 134 65280
317 826 308 65280
356 864 325 65280
399 905 345 65280
395 841 324 65280
476 896 353 65280
441 784 313 65280
463 777 315 65280
474 753 310 65280
484 728 305 65280
499 712 303 65280
-478 720 284 65280
-455 723 281 65280
-430 721 276 65280
-326 579 218 65280
-276 520 194 65280
-264 527 194 65280
-242 515 187 65280
-209 475 171 65280
-190 462 164 65280
-164 429 151 65280
-139 390 136 65280
-124 379 131 65280
-118 392 134 65280
-103 375 128 65280
-94 378 128 65280
-87 390 131 65280
-75 382 128 65280
-66 384 128 65280
-57 390 129 65280
-51 416 138 65280
431 766 289 65280
463 777 297 65280
490 778 302 65280
498 749 295 65280
519 741 297 65280
-500 753 279 65280
-460 731 267 65280
-442 743 267 65280
-355 631 224 65280
-274 516 180 65280
-268 536 185 65280
-246 524 179 65280
-209 475 160 65280
-182 443 148 65280
-155 406 134 65280
-140 395 129 65280
-124 379 123 65280
-115 382 123 65280
-102 371 118 65280
-93 373 118 65280
-82 370 117 65280
-71 362 114 65280
-63 369 115 65280
-56 380 118 65280
-46 382 118 65280
58 797 247 65280
78 796 247 65280
99 813 253 65280
113 771 241 65280
128 743 233 65280
141 716 225 65280
422 749 265 65280
424 712 256 65280
442 702 256 65280
464 699 259 65280
513 733 276 65280
-470 707 245 65280
-455 723 247 65280
-455 764 257 65280
-392 696 231 65280
-276 520 170 65280
-261 523 169 65280
-251 533 170 65280
-211 480 151 65280
-182 443 138 65280
-150 392 121 65280
-140 395 121 65280
-126 384 117 65280
-114 378 114 65280
-102 371 111 65280
-94 378 112 65280
-82 370 109 65280
-71 362 106 65280
-64 374 109 65280
-55 375 109 65280
-48 392 114 65280
36 739 213 65280
55 757 219 65280
76 776 225 65280
93 759 221 65280
110 746 218 65280
123 714 209 65280
152 770 226 65280
442 666 231 65280
458 655 231 65280
-426 641 207 65280
-415 660 209 65280
-394 661 207 65280
-397 705 217 65280
-291 547 166 65280
-250 500 150 65280
-244 520 154 65280
-217 494 145 65280
-190 462 134 65280
-152 396 114 65280
-137 386 110 65280
-126 384 108 65280
-115 382 107 65280
-102 371 103 65280
-94 378 104 65280
-82 370 102 65280
-73 372 102 65280
-65 379 103 65280
-54 370 100 65280
-47 387 104 65280
16 679 182 65280
34 704 189 65280
51 708 190 65280
70 716 193 65280
88 719 194 65280
105 712 193 65280
129 748 204 65280
-412 655 192 65280
-378 635 184 65280
-400 710 202 65280
-319 600 169 65280
-246 491 136 65280
-238 506 139 65280
-217 494 134 65280
-192 466 125 65280
-163 424 113 65280
-140 395 104 65280
-124 379 99 65280
-115 382 99 65280
-100 366 94 65280
-90 363 93 65280
-82 370 94 65280
-73 372 94 65280
-64 374 94 65280
-56 380 95 65280
-49 401 100 65280
0 570 141 65280
15 619 154 65280
29 609 151 65280
46 638 159 65280
64 656 164 65280
81 665 166 65280
105 712 179 65280
313 625 174 65280
307 578 162 65280
333 592 169 65280
381 639 185 65280
365 579 170 65280
387 583 174 65280
384 548 166 65280
-387 583 159 65280
-347 653 168 65280
-241 482 123 65280
-234 497 125 65280
-197 448 111 65280
-175 425 105 65280
-157 410 100 65280
-134 376 91 65280
-123 375 90 65280
-115 382 91 65280
-100 366 86 65280
-93 373 87 65280
-82 370 86 65280
-73 372 86 65280
-67 389 90 65280
-57 390 90 65280
-49 406 93 65280
0 535 122 65280
13 539 123 65280
26 534 122 65280
41 558 127 65280
58 597 137 65280
81 665 152 65280
277 554 141 65280
286 538 139 65280
294 522 137 65280
307 515 137 65280
301 478 129 65280
320 483 132 65280
341 487 135 65280
-329 495 123 65280
-351 558 137 65280
-347 653 153 65280
-266 532 123 65280
-221 470 108 65280
-185 420 95 65280
-156 379 85 65280
-145 378 84 65280
-134 376 83 65280
-115 351 76 65280
-108 358 77 65280
-100 366 79 65280
-91 368 79 65280
-82 370 79 65280
-71 362 76 65280
-62 364 76 65280
-58 395 83 65280
-56 456 95 65280
-11 479 99 65280
0 505 104 65280
12 514 107 65280
112 502 107 65280
270 540 125 65280
295 556 130 65280
304 540 128 65280
314 528 127 65280
311 495 121 65280
329 495 123 65280
352 503 127 65280
-340 512 115 65280
-303 482 106 65280
-307 515 112 65280
-316 561 120 65280
-298 560 118 65280
-255 509 106 65280
-208 443 91 65280
-171 388 79 65280
-148 360 73 65280
-139 364 73 65280
-130 367 73 65280
-117 356 70 65280
-105 349 68 65280
-96 351 68 65280
-88 354 68 65280
-77 346 66 65280
-71 362 69 65280
-62 359 68 65280
-58 395 74 65280
-53 431 81 65280
-24 509 95 65280
-12 499 93 65280
0 480 89 65280
11 454 85 65280
75 509 96 65280
83 482 91 65280
89 451 86 65280
97 434 83 65280
111 446 86 65280
132 482 93 65280
148 493 96 65280
181 550 108 65280
217 494 101 65280
242 515 106 65280
266 532 111 65280
274 516 109 65280
287 509 109 65280
286 481 104 65280
298 473 104 65280
304 458 103 65280
309 442 101 65280
-273 412 82 65280
-234 372 73 65280
-243 408 79 65280
-245 435 83 65280
-213 401 75 65280
-197 393 73 65280
-176 375 69 65280
-167 379 69 65280
-146 355 64 65280
-132 345 61 65280
-125 353 62 65280
-117 356 62 65280
-104 344 60 65280
-95 347 60 65280
-85 344 59 65280
-76 341 58 65280
-69 353 60 65280
-61 354 60 65280
-57 390 65 65280
-54 441 74 65280
-10 439 73 65280
0 445 74 65280
58 476 80 65280
64 435 73 65280
71 413 70 65280
77 392 66 65280
87 390 66 65280
99 397 68 65280
114 414 71 65280
127 421 73 65280
148 451 79 65280
174 489 86 65280
197 513 91 65280
186 453 81 65280
161 365 66 65280
178 380 70 65280
192 384 71 65280
204 384 72 65280
211 374 71 65280
212 356 69 65280
234 372 73 65280
246 370 74 65280
232 331 67 65280
-218 329 57 65280
-210 334 57 65280
-197 330 56 65280
-201 357 59 65280
-180 339 56 65280
-172 344 56 65280
-157 334 54 65280
-153 347 55 65280
-144 351 55 65280
-134 350 54 65280
-120 339 52 65280
-112 341 52 65280
-104 344 52 65280
-92 337 51 65280
-88 354 53 65280
-78 351 52 65280
-68 348 51 65280
-62 359 53 65280
-57 390 57 65280
-56 456 67 65280
-10 409 59 65280
32 438 64 65280
40 408 59 65280
46 377 55 65280
58 395 58 65280
68 394 58 65280
74 377 56 65280
86 385 57 65280
95 383 57 65280
106 385 58 65280
117 387 59 65280
129 394 60 65280
142 400 62 65280
161 420 65 65280
150 365 57 65280
153 347 55 65280
166 352 56 65280
176 353 57 65280
187 353 58 65280
191 339 56 65280
199 334 56 65280
213 338 58 65280
221 333 58 65280
215 307 54 65280
-213 320 48 65280
-202 321 47 65280
-189 317 46 65280
-186 331 47 65280
-178 335 47 65280
-167 335 47 65280
-155 330 45 65280
-145 329 45 65280
-137 332 45 65280
-130 340 45 65280
-119 334 44 65280
-109 332 43 65280
-98 325 42 65280
-95 347 45 65280
-87 349 45 65280
-80 361 46 65280
-75 382 48 65280
-68 399 50 65280
-56 380 48 65280
-55 451 57 65280
30 408 51 65280
37 378 47 65280
45 372 47 65280
58 395 50 65280
66 384 48 65280
72 367 47 65280
83 375 48 65280
94 378 48 65280
103 375 48 65280
112 373 48 65280
121 370 48 65280
135 381 50 65280
145 378 50 65280
146 355 48 65280
153 347 47 65280
161 343 47 65280
170 339 47 65280
180 339 48 65280
186 331 47 65280
197 330 48 65280
202 321 47 65280
210 316 47 65280
209 298 45 65280
-207 312 39 65280
-199 317 39 65280
-184 309 37 65280
-176 313 37 65280
-171 322 38 65280
-161 321 37 65280
-153 325 37 65280
-143 324 37 65280
-133 323 36 65280
-129 336 37 65280
-115 325 36 65280
-107 327 36 65280
-98 325 35 65280
-94 342 37 65280
-85 344 37 65280
-77 346 37 65280
-73 372 39 65280
-67 389 41 65280
-61 415 43 65280
-56 456 48 65280
30 408 42 65280
38 393 41 65280
46 382 40 65280
55 375 39 65280
64 374 39 65280
73 372 39 65280
82 370 39 65280
91 368 39 65280
100 366 39 65280
109 363 39 65280
118 360 39 65280
132 372 41 65280
137 359 40 65280
142 346 39 65280
151 343 39 65280
161 343 39 65280
170 339 39 65280
176 331 39 65280
181 322 38 65280
192 322 39 65280
191 304 37 65280
199 299 37 65280
206 294 37 65280
-201 304 30 65280
-197 313 30 65280
-184 309 30 65280
-169 300 28 65280
-166 313 29 65280
-158 317 29 65280
-149 316 29 65280
-145 329 30 65280
-131 318 28 65280
-121 317 28 65280
-114 320 28 65280
-107 327 28 65280
-101 335 29 65280
-90 327 28 65280
-84 339 29 65280
-73 326 28 65280
-69 353 30 65280
-68 394 33 65280
-65 440 37 65280
-56 456 38 65280
28 388 32 65280
37 378 31 65280
45 367 30 65280
52 356 30 65280
61 354 30 65280
73 372 31 65280
82 370 31 65280
90 363 31 65280
99 361 31 65280
106 354 30 65280
118 360 31 65280
132 372 33 65280
132 345 30 65280
135 328 29 65280
145 329 30 65280
155 330 30 65280
163 326 30 65280
169 317 30 65280
176 313 30 65280
184 309 30 65280
189 300 29 65280
196 295 29 65280
206 294 30 65280
-199 299 22 65280
-183 291 21 65280
-181 304 22 65280
-174 309 22 65280
-166 313 22 65280
-158 317 22 65280
-146 312 21 65280
-141 320 21 65280
-131 318 21 65280
-121 317 21 65280
-110 310 20 65280
-106 322 21 65280
-101 335 21 65280
-90 327 21 65280
-78 315 20 65280
-66 297 19 65280
-67 338 21 65280
-67 389 24 65280
-65 440 27 65280
-59 481 30 65280
-35 478 30 65280
38 388 24 65280
44 362 22 65280
51 351 22 65280
51 300 19 65280
67 338 21 65280
78 351 22 65280
89 359 23 65280
95 347 22 65280
106 354 23 65280
112 341 22 65280
127 357 23 65280
129 336 22 65280
129 314 21 65280
145 329 22 65280
146 312 21 65280
167 335 23 65280
166 313 22 65280
179 317 22 65280
184 309 22 65280
181 287 21 65280
199 299 22 65280
200 286 21 65280
-196 295 14 65280
-178 283 14 65280
-176 296 14 65280
-176 313 15 65280
-164 309 14 65280
-156 312 14 65280
-151 321 14 65280
-137 311 14 65280
-137 332 15 65280
-125 326 14 65280
-114 320 14 65280
-107 327 14 65280
-104 344 15 65280
-91 332 14 65280
-81 325 14 65280
-73 326 14 65280
-74 377 16 65280
-77 448 19 65280
-67 460 19 65280
-60 496 20 65280
-30 308 12 65280
-80 1102 46 65280
0 0 0 65280
0 1060 44 65280
1 44 1 65280
0 0 0 65280
44 452 19 65280
62 506 21 65280
8 59 2 65280
0 4 0 65280
5 29 1 65280
0 0 0 65280
0 0 0 65280
0 0 0 65280
72 239 10 65280
78 237 10 65280
171 480 21 65280
0 0 0 65280
66 161 7 65280
0 0 0 65280
0 930 -97 65280
21 864 -90 65280
35 719 -75 65280
48 663 -69 65280
66 681 -71 65280
78 640 -67 65280
-21 879 -110 65280
0 695 -87 65280
15 639 -80 65280
30 619 -77 65280
45 623 -78 65280
58 592 -74 65280
74 610 -77 65280
96 652 -82 65280
-44 903 -132 65280
-15 639 -93 65280
0 620 -90 65280
14 589 -86 65280
29 594 -86 65280
42 578 -84 65280
56 577 -84 65280
70 575 -84 65280
80 544 -80 65280
98 571 -84 65280
-71 972 -162 65280
-32 659 -110 65280
-14 594 -99 65280
0 600 -100 65280
14 599 -100 65280
29 609 -101 65280
43 588 -98 65280
57 582 -97 65280
70 570 -95 65280
82 558 -94 65280
102 591 -100 65280
137 696 -118 65280
-68 937 -176 65280
-29 594 -111 65280
-14 584 -109 65280
0 580 -108 65280
14 579 -108 65280
28 589 -110 65280
43 593 -111 65280
57 582 -109 65280
70 575 -108 65280
87 593 -112 65280
102 591 -112 65280
131 662 -126 65280
-54 738 -153 65280
-30 624 -129 65280
-15 619 -128 65280
0 600 -124 65280
15 614 -127 65280
29 599 -124 65280
43 598 -124 65280
56 577 -120 65280
70 575 -120 65280
86 588 -123 65280
102 591 -124 65280
124 627 -133 65280
-48 663 -151 65280
-31 639 -146 65280
-14 609 -139 65280
0 595 -135 65280
14 594 -135 65280
29 594 -135 65280
43 598 -137 65280
57 587 -134 65280
71 585 -134 65280
87 593 -137 65280
105 610 -141 65280
120 608 -141 65280
150 673 -157 65280
-87 895 -223 65280
-48 658 -164 65280
-31 639 -159 65280
-14 604 -150 65280
0 600 -149 65280
14 594 -147 65280
28 589 -146 65280
43 588 -146 65280
57 582 -145 65280
71 580 -145 65280
86 583 -146 65280
101 586 -147 65280
116 588 -149 65280
-74 761 -205 65280
-48 658 -177 65280
-32 659 -177 65280
-15 619 -166 65280
0 610 -164 65280
14 594 -160 65280
29 599 -161 65280
43 598 -161 65280
58 597 -161 65280
72 590 -160 65280
87 593 -161 65280
102 596 -162 65280
128 647 -177 65280
172 770 -212 65280
-130 1062 -309 65280
-65 671 -195 65280
-46 638 -184 65280
-32 659 -190 65280
-15 624 -180 65280
0 620 -179 65280
14 604 -174 65280
29 599 -173 65280
43 598 -173 65280
58 597 -173 65280
73 595 -173 65280
89 603 -176 65280
102 596 -174 65280
117 593 -174 65280
138 619 -183 65280
170 684 -203 65280
-85 870 -270 65280
-51 703 -217 65280
-31 649 -200 65280
-15 624 -193 65280
0 620 -191 65280
15 614 -190 65280
29 609 -188 65280
44 608 -188 65280
59 602 -186 65280
74 610 -190 65280
89 603 -188 65280
98 571 -179 65280
110 559 -176 65280
126 566 -179 65280
145 582 -185 65280
173 631 -202 65280
-57 787 -259 65280
-31 654 -215 65280
-15 624 -205 65280
0 610 -200 65280
14 609 -200 65280
30 619 -203 65280
45 618 -203 65280
60 612 -202 65280
72 590 -195 65280
82 558 -185 65280
96 556 -185 65280
111 564 -189 65280
126 566 -190 65280
140 562 -190 65280
165 602 -205 65280
182 603 -207 65280
237 721 -249 65280
-70 962 -336 65280
-33 684 -238 65280
-15 639 -223 65280
0 640 -223 65280
15 634 -221 65280
31 639 -223 65280
43 598 -209 65280
56 572 -200 65280
68 560 -196 65280
83 563 -198 65280
96 556 -196 65280
108 549 -195 65280
122 546 -195 65280
135 543 -195 65280
140 510 -184 65280
151 502 -183 65280
162 493 -181 65280
176 494 -183 65280
198 518 -193 65280
-71 967 -357 65280
-32 664 -244 65280
-15 624 -230 65280
0 650 -239 65280
16 654 -241 65280
30 619 -228 65280
39 538 -198 65280
54 557 -206 65280
70 570 -211 65280
82 558 -207 65280
95 551 -206 65280
110 559 -209 65280
123 551 -207 65280
125 504 -191 65280
127 462 -176 65280
134 445 -171 65280
145 441 -171 65280
161 452 -176 65280
172 448 -176 65280
196 476 -189 65280
-42 873 -339 65280
-20 819 -317 65280
0 775 -300 65280
19 799 -310 65280
31 654 -253 65280
40 548 -213 65280
56 572 -222 65280
69 565 -220 65280
82 558 -218 65280
96 556 -218 65280
108 549 -217 65280
115 517 -205 65280
116 465 -186 65280
119 433 -174 65280
130 430 -174 65280
142 432 -176 65280
154 433 -178 65280
161 420 -174 65280
182 443 -186 65280
232 526 -222 65280
20 829 -337 65280
33 679 -276 65280
42 573 -233 65280
55 567 -231 65280
70 575 -235 65280
83 563 -231 65280
95 551 -227 65280
103 524 -217 65280
105 473 -197 65280
112 451 -189 65280
122 443 -187 65280
127 421 -178 65280
137 417 -178 65280
150 423 -183 65280
164 429 -187 65280
175 425 -187 65280
209 475 -211 65280
21 874 -372 65280
33 679 -289 65280
42 583 -249 65280
56 577 -246 65280
70 570 -244 65280
83 563 -242 65280
95 551 -238 65280
99 500 -217 65280
100 448 -195 65280
112 451 -197 65280
116 424 -187 65280
122 406 -180 65280
132 403 -180 65280
144 405 -183 65280
152 396 -180 65280
169 411 -189 65280
193 439 -204 65280
21 869 -386 65280
32 674 -300 65280
43 598 -266 65280
57 582 -260 65280
70 575 -257 65280
83 563 -253 65280
91 532 -240 65280
93 470 -213 65280
101 453 -206 65280
111 446 -204 65280
111 404 -186 65280
121 402 -186 65280
134 408 -191 65280
144 405 -191 65280
154 401 -191 65280
167 406 -195 65280
177 402 -195 65280
34 714 -331 65280
44 608 -282 65280
58 597 -277 65280
73 595 -277 65280
83 563 -264 65280
86 502 -236 65280
92 465 -220 65280
100 448 -213 65280
107 431 -206 65280
116 424 -203 65280
122 406 -196 65280
132 403 -196 65280
144 405 -199 65280
154 401 -199 65280
163 397 -199 65280
177 402 -203 65280
38 779 -375 65280
45 613 -296 65280
58 592 -286 65280
70 575 -279 65280
78 529 -257 65280
80 468 -228 65280
92 465 -228 65280
98 439 -216 65280
106 426 -211 65280
114 414 -207 65280
124 411 -207 65280
131 398 -202 65280
140 395 -202 65280
152 396 -204 65280
163 397 -207 65280
177 402 -211 65280
41 853 -427 65280
45 618 -310 65280
59 607 -305 65280
69 565 -285 65280
73 494 -250 65280
78 453 -230 65280
93 470 -240 65280
97 434 -222 65280
107 431 -222 65280
111 404 -210 65280
121 402 -210 65280
129 394 -207 65280
139 390 -207 65280
150 392 -210 65280
158 383 -207 65280
177 402 -220 65280
186 941 353 255
172 770 290 255
165 664 252 255
155 563 215 255
190 631 242 255
209 636 246 255
154 891 315 255
137 696 247 255
143 644 230 255
149 601 216 255
156 568 205 255
170 564 205 255
187 569 209 255
226 635 235 255
131 890 295 255
109 635 212 255
119 603 202 255
129 580 195 255
141 567 192 255
154 559 190 255
173 574 197 255
187 569 197 255
201 565 197 255
240 625 220 255
117 957 298 255
98 667 208 255
102 591 185 255
115 583 183 255
127 570 180 255
140 562 179 255
155 563 180 255
164 545 176 255
179 546 177 255
194 546 179 255
220 574 190 255
113 928 270 255
91 618 180 255
102 591 173 255
115 583 171 255
130 585 173 255
148 596 177 255
159 578 173 255
167 555 167 255
185 565 171 255
197 555 170 255
202 527 163 255
249 605 189 255
88 724 196 255
92 623 169 255
104 606 165 255
118 598 164 255
135 605 166 255
145 582 161 255
158 573 160 255
166 550 154 255
181 550 155 255
194 546 155 255
202 527 151 255
232 563 164 255
102 1049 262 255
83 679 170 255
94 643 161 255
102 596 150 255
116 588 149 255
130 585 149 255
145 582 149 255
159 578 149 255
169 560 145 255
185 565 147 255
201 565 149 255
209 546 145 255
232 563 151 255
310 704 191 255
86 880 202 255
82 674 155 255
96 652 150 255
103 601 139 255
117 593 138 255
130 585 137 255
143 577 135 255
159 578 137 255
170 564 134 255
184 560 134 255
201 565 137 255
215 560 137 255
240 582 143 255
75 766 160 255
80 655 137 255
96 652 137 255
102 596 125 255
115 583 123 255
130 585 124 255
145 582 124 255
159 578 124 255
167 555 120 255
188 574 125 255
201 565 124 255
216 564 125 255
247 600 135 255
298 677 153 255
77 1057 198 255
66 676 127 255
79 645 121 255
96 652 123 255
105 610 116 255
118 598 114 255
131 590 113 255
146 587 113 255
161 588 114 255
173 574 112 255
187 569 112 255
201 565 112 255
220 574 115 255
234 568 115 255
246 558 114 255
289 615 127 255
85 875 146 255
85 694 116 255
93 633 106 255
106 615 104 255
120 608 103 255
133 595 101 255
148 596 102 255
160 583 100 255
174 579 100 255
188 574 100 255
201 565 100 255
206 536 95 255
215 522 94 255
234 530 96 255
255 542 100 255
291 581 108 255
97 794 116 255
94 638 94 255
105 610 90 255
119 603 89 255
135 605 90 255
149 601 90 255
163 592 89 255
174 579 88 255
187 569 87 255
192 541 83 255
200 522 81 255
219 531 83 255
232 526 83 255
246 524 84 255
277 554 90 255
288 543 89 255
114 932 117 255
97 657 83 255
107 620 78 255
122 618 78 255
139 624 80 255
152 611 78 255
158 573 74 255
166 550 72 255
178 541 71 255
189 532 70 255
202 527 70 255
213 517 70 255
225 512 70 255
236 502 69 255
241 482 67 255
251 472 67 255
252 448 64 255
286 481 70 255
303 482 71 255
126 1032 108 255
96 652 68 255
105 610 64 255
124 627 66 255
138 619 66 255
145 582 62 255
143 520 56 255
161 536 58 255
176 536 59 255
187 527 58 255
204 532 59 255
215 522 59 255
219 498 56 255
219 465 53 255
214 429 50 255
215 406 48 255
228 405 48 255
248 416 50 255
266 423 52 255
287 433 54 255
120 816 69 255
151 877 74 255
159 804 68 255
172 770 66 255
157 630 54 255
146 530 46 255
164 545 47 255
176 536 47 255
189 532 47 255
202 527 47 255
211 513 46 255
211 480 43 255
206 438 40 255
203 406 38 255
213 401 38 255
223 396 38 255
232 390 38 255
245 389 38 255
268 403 40 255
301 430 43 255
178 800 51 255
164 659 42 255
150 544 35 255
161 536 35 255
179 546 36 255
189 532 35 255
200 522 35 255
200 485 32 255
193 439 30 255
195 416 28 255
205 411 28 255
206 388 27 255
215 383 27 255
230 386 28 255
237 376 27 255
254 383 28 255
278 397 30 255
196 878 37 255
164 659 28 255
155 563 24 255
169 560 24 255
181 550 24 255
192 541 24 255
200 522 23 255
192 466 21 255
187 425 19 255
197 420 19 255
194 388 18 255
197 370 17 255
208 370 17 255
217 365 17 255
221 351 17 255
243 366 18 255
266 380 19 255
193 863 18 255
160 645 13 255
156 568 12 255
169 560 12 255
181 550 12 255
189 532 11 255
193 504 11 255
181 439 9 255
189 430 9 255
195 416 9 255
185 371 8 255
197 370 8 255
206 365 8 255
217 365 8 255
229 363 9 255
243 366 9 255
260 372 9 255
170 684 0 255
159 578 0 255
173 574 0 255
184 560 0 255
187 527 0 255
179 466 0 255
179 434 0 255
185 420 0 255
187 398 0 255
194 388 0 255
201 379 0 255
206 365 0 255
217 365 0 255
231 368 0 255
243 366 0 255
252 360 0 255
182 732 -15 255
160 583 -12 255
173 574 -12 255
181 550 -12 255
176 494 -10 255
168 438 -9 255
181 439 -9 255
181 411 -9 255
187 398 -9 255
194 388 -9 255
201 379 -9 255
206 365 -8 255
215 360 -8 255
223 355 -8 255
232 349 -8 255
252 360 -9 255
208 834 -36 255
160 583 -25 255
174 579 -25 255
176 536 -23 255
167 471 -20 255
164 429 -19 255
182 443 -20 255
179 407 -18 255
189 402 -18 255
190 380 -17 255
201 379 -18 255
203 361 -17 255
209 352 -17 255
218 346 -17 255
229 345 -17 255
252 360 -18 255
-322 1171 -76 255
224 902 -58 255
160 583 -37 255
170 564 -37 255
171 522 -34 255
164 461 -30 255
172 448 -30 255
179 434 -29 255
177 402 -27 255
187 398 -27 255
190 380 -26 255
206 388 -27 255
206 365 -26 255
207 347 -25 255
221 351 -26 255
232 349 -26 255
238 339 -26 255
-370 1125 -99 255
-358 1187 -103 255
-317 1152 -99 255
187 751 -64 255
159 578 -50 255
163 540 -47 255
168 512 -45 255
166 466 -41 255
172 448 -40 255
175 425 -38 255
171 388 -35 255
178 380 -35 255
188 375 -35 255
199 375 -35 255
201 357 -34 255
212 356 -34 255
215 342 -33 255
224 337 -33 255
223 319 -32 255
-389 1092 -121 255
-374 1139 -125 255
-348 1153 -125 255
-323 1176 -127 255
-304 1222 -131 255
243 1088 -116 255
163 654 -70 255
155 563 -61 255
160 531 -58 255
163 498 -54 255
164 461 -51 255
173 452 -50 255
175 425 -48 255
171 388 -44 255
172 366 -42 255
183 366 -42 255
192 362 -42 255
203 361 -43 255
209 352 -42 255
213 338 -41 255
221 333 -41 255
240 344 -43 255
-415 1168 -155 255
-376 1144 -151 255
-343 1139 -149 255
-325 1181 -153 255
196 878 -112 255
149 601 -77 255
152 554 -72 255
160 531 -69 255
162 493 -65 255
162 456 -60 255
170 443 -59 255
175 425 -57 255
173 393 -53 255
176 375 -52 255
185 371 -52 255
194 366 -52 255
203 361 -52 255
207 347 -50 255
210 334 -49 255
226 341 -51 255
238 339 -52 255
-405 1139 -176 255
-374 1139 -175 255
-343 1139 -173 255
-323 1176 -178 255
-306 1227 -184 255
92 1256 -184 255
198 1000 -149 255
161 722 -108 255
145 582 -87 255
154 559 -84 255
158 526 -80 255
159 484 -74 255
167 471 -73 255
172 448 -70 255
175 425 -67 255
169 384 -61 255
176 375 -60 255
181 362 -59 255
187 353 -58 255
196 348 -58 255
204 343 -58 255
210 334 -57 255
221 333 -58 255
232 331 -59 255
-409 1149 -203 255
-376 1144 -200 255
-339 1124 -195 255
-304 1103 -190 255
-267 1072 -184 255
-239 1073 -183 255
-217 1098 -186 255
-197 1143 -193 255
-174 1182 -199 255
-129 1052 -176 255
-95 975 -163 255
-72 987 -165 255
-53 1083 -180 255
-28 1149 -191 255
0 1185 -197 255
28 1159 -193 255
56 1158 -193 255
84 1146 -191 255
108 1104 -185 255
141 1156 -194 255
160 1088 -183 255
171 990 -167 255
183 927 -157 255
150 673 -115 255
146 587 -100 255
155 563 -97 255
160 531 -92 255
160 489 -85 255
167 471 -83 255
172 448 -80 255
167 406 -73 255
167 379 -69 255
178 380 -70 255
183 366 -68 255
187 353 -66 255
196 348 -66 255
207 347 -67 255
213 338 -66 255
215 324 -65 255
232 331 -67 255
-202 1025 -195 255
-151 1023 -193 255
-115 942 -178 255
-92 945 -178 255
-67 912 -171 255
-44 918 -172 255
-22 924 -173 255
0 940 -176 255
22 909 -170 255
44 918 -172 255
66 902 -169 255
88 905 -170 255
110 898 -169 255
131 890 -168 255
152 881 -167 255
167 843 -161 255
142 639 -122 255
145 582 -112 255
154 559 -108 255
160 531 -103 255
159 484 -95 255
172 485 -96 255
177 462 -92 255
167 406 -82 255
167 379 -77 255
178 380 -78 255
181 362 -75 255
190 357 -75 255
203 361 -77 255
204 343 -74 255
210 334 -74 255
215 324 -73 255
246 352 -80 255
-134 910 -191 255
-110 898 -188 255
-86 880 -184 255
-65 892 -186 255
-43 893 -186 255
-23 964 -200 255
0 965 -200 255
21 899 -187 255
43 898 -187 255
65 897 -187 255
87 895 -187 255
107 878 -184 255
128 870 -182 255
149 867 -182 255
164 828 -175 255
140 629 -134 255
147 591 -126 255
158 573 -123 255
161 536 -116 255
160 489 -107 255
167 471 -103 255
172 448 -99 255
160 388 -87 255
167 379 -86 255
176 375 -86 255
176 353 -82 255
185 348 -82 255
198 352 -84 255
204 343 -83 255
210 334 -82 255
213 320 -80 255
229 327 -83 255
-109 888 -204 255
-90 925 -212 255
-67 922 -211 255
-42 878 -200 255
0 1005 -229 255
21 894 -204 255
43 893 -204 255
64 882 -202 255
86 885 -203 255
107 873 -200 255
125 850 -196 255
145 842 -195 255
163 824 -191 255
