# .PCD v.7 - Point Cloud Data file format
VERSION .7
FIELDS x y z rgb
SIZE 8 8 8 8
TYPE F F F F
COUNT 1 1 1 1
WIDTH 25
HEIGHT 25
VIEWPOINT 0 0 0 1 0 0 0
POINTS 625
DATA ascii
-2.87 4.10 2.50 65520
-2.66 4.23 2.50 65520
-2.45 4.36 2.50 65520
-2.24 4.47 2.50 65520
-2.02 4.57 2.50 65520
-1.79 4.67 2.50 65520
-1.56 4.75 2.50 65520
-1.33 4.82 2.50 65520
-1.09 4.88 2.50 65520
-0.85 4.93 2.50 65520
-0.61 4.96 2.50 65520
-0.37 4.99 2.50 65520
-0.12 5.00 2.50 65520
0.12 5.00 2.50 65520
0.37 4.99 2.50 65520
0.61 4.96 2.50 65520
0.85 4.93 2.50 65520
1.09 4.88 2.50 65520
1.33 4.82 2.50 65520
1.56 4.75 2.50 65520
1.79 4.67 2.50 65520
2.02 4.57 2.50 65520
2.24 4.47 2.50 65520
2.45 4.36 2.50 65520
2.66 4.23 2.50 65520
-2.87 4.10 2.32 65520
-2.66 4.23 2.32 65520
-2.45 4.36 2.32 65520
-2.24 4.47 2.32 65520
-2.02 4.57 2.32 65520
-1.79 4.67 2.32 65520
-1.56 4.75 2.32 65520
-1.33 4.82 2.32 65520
-1.09 4.88 2.32 65520
-0.85 4.93 2.32 65520
-0.61 4.96 2.32 65520
-0.37 4.99 2.32 65520
-0.12 5.00 2.32 65520
0.12 5.00 2.32 65520
0.37 4.99 2.32 65520
0.61 4.96 2.32 65520
0.85 4.93 2.32 65520
1.09 4.88 2.32 65520
1.33 4.82 2.32 65520
1.56 4.75 2.32 65520
1.79 4.67 2.32 65520
2.02 4.57 2.32 65520
2.24 4.47 2.32 65520
2.45 4.36 2.32 65520
2.66 4.23 2.32 65520
-2.87 4.10 2.13 65520
-2.66 4.23 2.13 65520
-2.45 4.36 2.13 65520
-2.24 4.47 2.13 65520
-2.02 4.57 2.13 65520
-1.79 4.67 2.13 65520
-1.56 4.75 2.13 65520
-1.33 4.82 2.13 65520
-1.09 4.88 2.13 65520
-0.85 4.93 2.13 65520
-0.61 4.96 2.13 65520
-0.37 4.99 2.13 65520
-0.12 5.00 2.13 65520
0.12 5.00 2.13 65520
0.37 4.99 2.13 65520
0.61 4.96 2.13 65520
0.85 4.93 2.13 65520
1.09 4.88 2.13 65520
1.33 4.82 2.13 65520
1.56 4.75 2.13 65520
1.79 4.67 2.13 65520
2.02 4.57 2.13 65520
2.24 4.47 2.13 65520
2.45 4.36 2.13 65520
2.66 4.23 2.13 65520
-2.87 4.10 1.94 65520
-2.66 4.23 1.94 65520
-2.45 4.36 1.94 65520
-2.24 4.47 1.94 65520
-2.02 4.57 1.94 65520
-1.79 4.67 1.94 65520
-1.56 4.75 1.94 65520
-1.33 4.82 1.94 65520
-1.09 4.88 1.94 65520
-0.85 4.93 1.94 65520
-0.61 4.96 1.94 65520
-0.37 4.99 1.94 65520
-0.12 5.00 1.94 65520
0.12 5.00 1.94 65520
0.37 4.99 1.94 65520
0.61 4.96 1.94 65520
0.85 4.93 1.94 65520
1.09 4.88 1.94 65520
1.33 4.82 1.94 65520
1.56 4.75 1.94 65520
1.79 4.67 1.94 65520
2.02 4.57 1.94 65520
2.24 4.47 1.94 65520
2.45 4.36 1.94 65520
2.66 4.23 1.94 65520
-2.87 4.10 1.74 65520
-2.66 4.23 1.74 65520
-2.45 4.36 1.74 65520
-2.24 4.47 1.74 65520
-2.02 4.57 1.74 65520
-1.79 4.67 1.74 65520
-1.56 4.75 1.74 65520
-1.33 4.82 1.74 65520
-1.09 4.88 1.74 65520
-0.85 4.93 1.74 65520
-0.61 4.96 1.74 65520
-0.37 4.99 1.74 65520
-0.12 5.00 1.74 65520
0.12 5.00 1.74 65520
0.37 4.99 1.74 65520
0.61 4.96 1.74 65520
0.85 4.93 1.74 65520
1.09 4.88 1.74 65520
1.33 4.82 1.74 65520
1.56 4.75 1.74 65520
1.79 4.67 1.74 65520
2.02 4.57 1.74 65520
2.24 4.47 1.74 65520
2.45 4.36 1.74 65520
2.66 4.23 1.74 65520
-2.87 4.10 1.55 65520
-2.66 4.23 1.55 65520
-2.45 4.36 1.55 65520
-2.24 4.47 1.55 65520
-2.02 4.57 1.55 65520
-1.79 4.67 1.55 65520
-1.56 4.75 1.55 65520
-1.33 4.82 1.55 65520
-1.09 4.88 1.55 65520
-0.85 4.93 1.55 65520
-0.61 4.96 1.55 65520
-0.37 4.99 1.55 65520
-0.12 5.00 1.55 65520
0.12 5.00 1.55 65520
0.37 4.99 1.55 65520
0.61 4.96 1.55 65520
0.85 4.93 1.55 65520
1.09 4.88 1.55 65520
1.33 4.82 1.55 65520
1.56 4.75 1.55 65520
1.79 4.67 1.55 65520
2.02 4.57 1.55 65520
2.24 4.47 1.55 65520
2.45 4.36 1.55 65520
2.66 4.23 1.55 65520
-2.87 4.10 1.34 65520
-2.66 4.23 1.34 65520
-2.45 4.36 1.34 65520
-2.24 4.47 1.34 65520
-2.02 4.57 1.34 65520
-1.79 4.67 1.34 65520
-1.56 4.75 1.34 65520
-1.33 4.82 1.34 65520
-1.09 4.88 1.34 65520
-0.85 4.93 1.34 65520
-0.61 4.96 1.34 65520
-0.37 4.99 1.34 65520
-0.12 5.00 1.34 65520
0.12 5.00 1.34 65520
0.37 4.99 1.34 65520
0.61 4.96 1.34 65520
0.85 4.93 1.34 65520
1.09 4.88 1.34 65520
1.33 4.82 1.34 65520
1.56 4.75 1.34 65520
1.79 4.67 1.34 65520
2.02 4.57 1.34 65520
2.24 4.47 1.34 65520
2.45 4.36 1.34 65520
2.66 4.23 1.34 65520
-2.87 4.10 1.14 65520
-2.66 4.23 1.14 65520
-2.45 4.36 1.14 65520
-2.24 4.47 1.14 65520
-2.02 4.57 1.14 65520
-1.79 4.67 1.14 65520
-1.56 4.75 1.14 65520
-1.33 4.82 1.14 65520
-1.09 4.88 1.14 65520
-0.85 4.93 1.14 65520
-0.61 4.96 1.14 65520
-0.37 4.99 1.14 65520
-0.12 5.00 1.14 65520
0.12 5.00 1.14 65520
0.37 4.99 1.14 65520
0.61 4.96 1.14 65520
0.85 4.93 1.14 65520
1.09 4.88 1.14 65520
1.33 4.82 1.14 65520
1.56 4.75 1.14 65520
1.79 4.67 1.14 65520
2.02 4.57 1.14 65520
2.24 4.47 1.14 65520
2.45 4.36 1.14 65520
2.66 4.23 1.14 65520
-2.87 4.10 0.94 65520
-2.66 4.23 0.94 65520
-2.45 4.36 0.94 65520
-2.24 4.47 0.94 65520
-2.02 4.57 0.94 65520
-1.79 4.67 0.94 65520
-1.56 4.75 0.94 65520
-1.33 4.82 0.94 65520
-1.09 4.88 0.94 65520
-0.85 4.93 0.94 65520
-0.61 4.96 0.94 65520
-0.37 4.99 0.94 65520
-0.12 5.00 0.94 65520
0.12 5.00 0.94 65520
0.37 4.99 0.94 65520
0.61 4.96 0.94 65520
0.85 4.93 0.94 65520
1.09 4.88 0.94 65520
1.33 4.82 0.94 65520
1.56 4.75 0.94 65520
1.79 4.67 0.94 65520
2.02 4.57 0.94 65520
2.24 4.47 0.94 65520
2.45 4.36 0.94 65520
2.66 4.23 0.94 65520
-2.87 4.10 0.73 65520
-2.66 4.23 0.73 65520
-2.45 4.36 0.73 65520
-2.24 4.47 0.73 65520
-2.02 4.57 0.73 65520
-1.79 4.67 0.73 65520
-1.56 4.75 0.73 65520
-1.33 4.82 0.73 65520
-1.09 4.88 0.73 65520
-0.85 4.93 0.73 65520
-0.61 4.96 0.73 65520
-0.37 4.99 0.73 65520
-0.12 5.00 0.73 65520
0.12 5.00 0.73 65520
0.37 4.99 0.73 65520
0.61 4.96 0.73 65520
0.85 4.93 0.73 65520
1.09 4.88 0.73 65520
1.33 4.82 0.73 65520
1.56 4.75 0.73 65520
1.79 4.67 0.73 65520
2.02 4.57 0.73 65520
2.24 4.47 0.73 65520
2.45 4.36 0.73 65520
2.66 4.23 0.73 65520
-2.87 4.10 0.52 65520
-2.66 4.23 0.52 65520
-2.45 4.36 0.52 65520
-2.24 4.47 0.52 65520
-2.02 4.57 0.52 65520
-1.79 4.67 0.52 65520
-1.56 4.75 0.52 65520
-1.33 4.82 0.52 65520
-1.09 4.88 0.52 65520
-0.85 4.93 0.52 65520
-0.61 4.96 0.52 65520
-0.37 4.99 0.52 65520
-0.12 5.00 0.52 65520
0.12 5.00 0.52 65520
0.37 4.99 0.52 65520
0.61 4.96 0.52 65520
0.85 4.93 0.52 65520
1.09 4.88 0.52 65520
1.33 4.82 0.52 65520
1.56 4.75 0.52 65520
1.79 4.67 0.52 65520
2.02 4.57 0.52 65520
2.24 4.47 0.52 65520
2.45 4.36 0.52 65520
2.66 4.23 0.52 65520
-2.87 4.10 0.31 65520
-2.66 4.23 0.31 65520
-2.45 4.36 0.31 65520
-2.24 4.47 0.31 65520
-2.02 4.57 0.31 65520
-1.79 4.67 0.31 65520
-1.56 4.75 0.31 65520
-1.33 4.82 0.31 65520
-1.09 4.88 0.31 65520
-0.85 4.93 0.31 65520
-0.61 4.96 0.31 65520
-0.37 4.99 0.31 65520
-0.12 5.00 0.31 65520
0.12 5.00 0.31 65520
0.37 4.99 0.31 65520
0.61 4.96 0.31 65520
0.85 4.93 0.31 65520
1.09 4.88 0.31 65520
1.33 4.82 0.31 65520
1.56 4.75 0.31 65520
1.79 4.67 0.31 65520
2.02 4.57 0.31 65520
2.24 4.47 0.31 65520
2.45 4.36 0.31 65520
2.66 4.23 0.31 65520
-2.87 4.10 0.10 65520
-2.66 4.23 0.10 65520
-2.45 4.36 0.10 65520
-2.24 4.47 0.10 65520
-2.02 4.57 0.10 65520
-1.79 4.67 0.10 65520
-1.56 4.75 0.10 65520
-1.33 4.82 0.10 65520
-1.09 4.88 0.10 65520
-0.85 4.93 0.10 65520
-0.61 4.96 0.10 65520
-0.37 4.99 0.10 65520
-0.12 5.00 0.10 65520
0.12 5.00 0.10 65520
0.37 4.99 0.10 65520
0.61 4.96 0.10 65520
0.85 4.93 0.10 65520
1.09 4.88 0.10 65520
1.33 4.82 0.10 65520
1.56 4.75 0.10 65520
1.79 4.67 0.10 65520
2.02 4.57 0.10 65520
2.24 4.47 0.10 65520
2.45 4.36 0.10 65520
2.66 4.23 0.10 65520
-2.87 4.10 -0.10 65520
-2.66 4.23 -0.10 65520
-2.45 4.36 -0.10 65520
-2.24 4.47 -0.10 65520
-2.02 4.57 -0.10 65520
-1.79 4.67 -0.10 65520
-1.56 4.75 -0.10 65520
-1.33 4.82 -0.10 65520
-1.09 4.88 -0.10 65520
-0.85 4.93 -0.10 65520
-0.61 4.96 -0.10 65520
-0.37 4.99 -0.10 65520
-0.12 5.00 -0.10 65520
0.12 5.00 -0.10 65520
0.37 4.99 -0.10 65520
0.61 4.96 -0.10 65520
0.85 4.93 -0.10 65520
1.09 4.88 -0.10 65520
1.33 4.82 -0.10 65520
1.56 4.75 -0.10 65520
1.79 4.67 -0.10 65520
2.02 4.57 -0.10 65520
2.24 4.47 -0.10 65520
2.45 4.36 -0.10 65520
2.66 4.23 -0.10 65520
-2.87 4.10 -0.31 65520
-2.66 4.23 -0.31 65520
-2.45 4.36 -0.31 65520
-2.24 4.47 -0.31 65520
-2.02 4.57 -0.31 65520
-1.79 4.67 -0.31 65520
-1.56 4.75 -0.31 65520
-1.33 4.82 -0.31 65520
-1.09 4.88 -0.31 65520
-0.85 4.93 -0.31 65520
-0.61 4.96 -0.31 65520
-0.37 4.99 -0.31 65520
-0.12 5.00 -0.31 65520
0.12 5.00 -0.31 65520
0.37 4.99 -0.31 65520
0.61 4.96 -0.31 65520
0.85 4.93 -0.31 65520
1.09 4.88 -0.31 65520
1.33 4.82 -0.31 65520
1.56 4.75 -0.31 65520
1.79 4.67 -0.31 65520
2.02 4.57 -0.31 65520
2.24 4.47 -0.31 65520
2.45 4.36 -0.31 65520
2.66 4.23 -0.31 65520
-2.87 4.10 -0.52 65520
-2.66 4.23 -0.52 65520
-2.45 4.36 -0.52 65520
-2.24 4.47 -0.52 65520
-2.02 4.57 -0.52 65520
-1.79 4.67 -0.52 65520
-1.56 4.75 -0.52 65520
-1.33 4.82 -0.52 65520
-1.09 4.88 -0.52 65520
-0.85 4.93 -0.52 65520
-0.61 4.96 -0.52 65520
-0.37 4.99 -0.52 65520
-0.12 5.00 -0.52 65520
0.12 5.00 -0.52 65520
0.37 4.99 -0.52 65520
0.61 4.96 -0.52 65520
0.85 4.93 -0.52 65520
1.09 4.88 -0.52 65520
1.33 4.82 -0.52 65520
1.56 4.75 -0.52 65520
1.79 4.67 -0.52 65520
2.02 4.57 -0.52 65520
2.24 4.47 -0.52 65520
2.45 4.36 -0.52 65520
2.66 4.23 -0.52 65520
-2.87 4.10 -0.73 65520
-2.66 4.23 -0.73 65520
-2.45 4.36 -0.73 65520
-2.24 4.47 -0.73 65520
-2.02 4.57 -0.73 65520
-1.79 4.67 -0.73 65520
-1.56 4.75 -0.73 65520
-1.33 4.82 -0.73 65520
-1.09 4.88 -0.73 65520
-0.85 4.93 -0.73 65520
-0.61 4.96 -0.73 65520
-0.37 4.99 -0.73 65520
-0.12 5.00 -0.73 65520
0.12 5.00 -0.73 65520
0.37 4.99 -0.73 65520
0.61 4.96 -0.73 65520
0.85 4.93 -0.73 65520
1.09 4.88 -0.73 65520
1.33 4.82 -0.73 65520
1.56 4.75 -0.73 65520
1.79 4.67 -0.73 65520
2.02 4.57 -0.73 65520
2.24 4.47 -0.73 65520
2.45 4.36 -0.73 65520
2.66 4.23 -0.73 65520
-2.87 4.10 -0.94 65520
-2.66 4.23 -0.94 65520
-2.45 4.36 -0.94 65520
-2.24 4.47 -0.94 65520
-2.02 4.57 -0.94 65520
-1.79 4.67 -0.94 65520
-1.56 4.75 -0.94 65520
-1.33 4.82 -0.94 65520
-1.09 4.88 -0.94 65520
-0.85 4.93 -0.94 65520
-0.61 4.96 -0.94 65520
-0.37 4.99 -0.94 65520
-0.12 5.00 -0.94 65520
0.12 5.00 -0.94 65520
0.37 4.99 -0.94 65520
0.61 4.96 -0.94 65520
0.85 4.93 -0.94 65520
1.09 4.88 -0.94 65520
1.33 4.82 -0.94 65520
1.56 4.75 -0.94 65520
1.79 4.67 -0.94 65520
2.02 4.57 -0.94 65520
2.24 4.47 -0.94 65520
2.45 4.36 -0.94 65520
2.66 4.23 -0.94 65520
-2.87 4.10 -1.14 65520
-2.66 4.23 -1.14 65520
-2.45 4.36 -1.14 65520
-2.24 4.47 -1.14 65520
-2.02 4.57 -1.14 65520
-1.79 4.67 -1.14 65520
-1.56 4.75 -1.14 65520
-1.33 4.82 -1.14 65520
-1.09 4.88 -1.14 65520
-0.85 4.93 -1.14 65520
-0.61 4.96 -1.14 65520
-0.37 4.99 -1.14 65520
-0.12 5.00 -1.14 65520
0.12 5.00 -1.14 65520
0.37 4.99 -1.14 65520
0.61 4.96 -1.14 65520
0.85 4.93 -1.14 65520
1.09 4.88 -1.14 65520
1.33 4.82 -1.14 65520
1.56 4.75 -1.14 65520
1.79 4.67 -1.14 65520
2.02 4.57 -1.14 65520
2.24 4.47 -1.14 65520
2.45 4.36 -1.14 65520
2.66 4.23 -1.14 65520
-2.87 4.10 -1.34 65520
-2.66 4.23 -1.34 65520
-2.45 4.36 -1.34 65520
-2.24 4.47 -1.34 65520
-2.02 4.57 -1.34 65520
-1.79 4.67 -1.34 65520
-1.56 4.75 -1.34 65520
-1.33 4.82 -1.34 65520
-1.09 4.88 -1.34 65520
-0.85 4.93 -1.34 65520
-0.61 4.96 -1.34 65520
-0.37 4.99 -1.34 65520
-0.12 5.00 -1.34 65520
0.12 5.00 -1.34 65520
0.37 4.99 -1.34 65520
0.61 4.96 -1.34 65520
0.85 4.93 -1.34 65520
1.09 4.88 -1.34 65520
1.33 4.82 -1.34 65520
1.56 4.75 -1.34 65520
1.79 4.67 -1.34 65520
2.02 4.57 -1.34 65520
2.24 4.47 -1.34 65520
2.45 4.36 -1.34 65520
2.66 4.23 -1.34 65520
-2.87 4.10 -1.55 65520
-2.66 4.23 -1.55 65520
-2.45 4.36 -1.55 65520
-2.24 4.47 -1.55 65520
-2.02 4.57 -1.55 65520
-1.79 4.67 -1.55 65520
-1.56 4.75 -1.55 65520
-1.33 4.82 -1.55 65520
-1.09 4.88 -1.55 65520
-0.85 4.93 -1.55 65520
-0.61 4.96 -1.55 65520
-0.37 4.99 -1.55 65520
-0.12 5.00 -1.55 65520
0.12 5.00 -1.55 65520
0.37 4.99 -1.55 65520
0.61 4.96 -1.55 65520
0.85 4.93 -1.55 65520
1.09 4.88 -1.55 65520
1.33 4.82 -1.55 65520
1.56 4.75 -1.55 65520
1.79 4.67 -1.55 65520
2.02 4.57 -1.55 65520
2.24 4.47 -1.55 65520
2.45 4.36 -1.55 65520
2.66 4.23 -1.55 65520
-2.87 4.10 -1.74 65520
-2.66 4.23 -1.74 65520
-2.45 4.36 -1.74 65520
-2.24 4.47 -1.74 65520
-2.02 4.57 -1.74 65520
-1.79 4.67 -1.74 65520
-1.56 4.75 -1.74 65520
-1.33 4.82 -1.74 65520
-1.09 4.88 -1.74 65520
-0.85 4.93 -1.74 65520
-0.61 4.96 -1.74 65520
-0.37 4.99 -1.74 65520
-0.12 5.00 -1.74 65520
0.12 5.00 -1.74 65520
0.37 4.99 -1.74 65520
0.61 4.96 -1.74 65520
0.85 4.93 -1.74 65520
1.09 4.88 -1.74 65520
1.33 4.82 -1.74 65520
1.56 4.75 -1.74 65520
1.79 4.67 -1.74 65520
2.02 4.57 -1.74 65520
2.24 4.47 -1.74 65520
2.45 4.36 -1.74 65520
2.66 4.23 -1.74 65520
-2.87 4.10 -1.94 65520
-2.66 4.23 -1.94 65520
-2.45 4.36 -1.94 65520
-2.24 4.47 -1.94 65520
-2.02 4.57 -1.94 65520
-1.79 4.67 -1.94 65520
-1.56 4.75 -1.94 65520
-1.33 4.82 -1.94 65520
-1.09 4.88 -1.94 65520
-0.85 4.93 -1.94 65520
-0.61 4.96 -1.94 65520
-0.37 4.99 -1.94 65520
-0.12 5.00 -1.94 65520
0.12 5.00 -1.94 65520
0.37 4.99 -1.94 65520
0.61 4.96 -1.94 65520
0.85 4.93 -1.94 65520
1.09 4.88 -1.94 65520
1.33 4.82 -1.94 65520
1.56 4.75 -1.94 65520
1.79 4.67 -1.94 65520
2.02 4.57 -1.94 65520
2.24 4.47 -1.94 65520
2.45 4.36 -1.94 65520
2.66 4.23 -1.94 65520
-2.87 4.10 -2.13 65520
-2.66 4.23 -2.13 65520
-2.45 4.36 -2.13 65520
-2.24 4.47 -2.13 65520
-2.02 4.57 -2.13 65520
-1.79 4.67 -2.13 65520
-1.56 4.75 -2.13 65520
-1.33 4.82 -2.13 65520
-1.09 4.88 -2.13 65520
-0.85 4.93 -2.13 65520
-0.61 4.96 -2.13 65520
-0.37 4.99 -2.13 65520
-0.12 5.00 -2.13 65520
0.12 5.00 -2.13 65520
0.37 4.99 -2.13 65520
0.61 4.96 -2.13 65520
0.85 4.93 -2.13 65520
1.09 4.88 -2.13 65520
1.33 4.82 -2.13 65520
1.56 4.75 -2.13 65520
1.79 4.67 -2.13 65520
2.02 4.57 -2.13 65520
2.24 4.47 -2.13 65520
2.45 4.36 -2.13 65520
2.66 4.23 -2.13 65520
-2.87 4.10 -2.32 65520
-2.66 4.23 -2.32 65520
-2.45 4.36 -2.32 65520
-2.24 4.47 -2.32 65520
-2.02 4.57 -2.32 65520
-1.79 4.67 -2.32 65520
-1.56 4.75 -2.32 65520
-1.33 4.82 -2.32 65520
-1.09 4.88 -2.32 65520
-0.85 4.93 -2.32 65520
-0.61 4.96 -2.32 65520
-0.37 4.99 -2.32 65520
-0.12 5.00 -2.32 65520
0.12 5.00 -2.32 65520
0.37 4.99 -2.32 65520
0.61 4.96 -2.32 65520
0.85 4.93 -2.32 65520
1.09 4.88 -2.32 65520
1.33 4.82 -2.32 65520
1.56 4.75 -2.32 65520
1.79 4.67 -2.32 65520
2.02 4.57 -2.32 65520
2.24 4.47 -2.32 65520
2.45 4.36 -2.32 65520
2.66 4.23 -2.32 65520
