# .PCD v.7 - Point Cloud Data file format
VERSION .7
FIELDS x y z rgb
SIZE 4 4 4 4
TYPE F F F F
COUNT 1 1 1 1
WIDTH 1000
HEIGHT 1
VIEWPOINT 0 0 0 1 0 0 0
POINTS 2500
DATA ascii
-731 1044 637 65520
-705 1061 637 65520
-679 1078 637 65520
-652 1095 637 65520
-625 1110 637 65520
-598 1125 637 65520
-570 1140 637 65520
-542 1153 637 65520
-514 1166 637 65520
-485 1178 637 65520
-456 1190 637 65520
-427 1201 637 65520
-398 1211 637 65520
-368 1220 637 65520
-338 1229 637 65520
-308 1237 637 65520
-278 1244 637 65520
-247 1250 637 65520
-217 1256 637 65520
-186 1261 637 65520
-155 1265 637 65520
-124 1268 637 65520
-93 1271 637 65520
-62 1273 637 65520
-31 1274 637 65520
0 1275 637 65520
31 1274 637 65520
62 1273 637 65520
93 1271 637 65520
124 1268 637 65520
155 1265 637 65520
186 1261 637 65520
217 1256 637 65520
247 1250 637 65520
278 1244 637 65520
308 1237 637 65520
338 1229 637 65520
368 1220 637 65520
398 1211 637 65520
427 1201 637 65520
456 1190 637 65520
485 1178 637 65520
514 1166 637 65520
542 1153 637 65520
570 1140 637 65520
598 1125 637 65520
625 1110 637 65520
652 1095 637 65520
679 1078 637 65520
705 1061 637 65520
-731 1044 614 65520
-705 1061 614 65520
-679 1078 614 65520
-652 1095 614 65520
-625 1110 614 65520
-598 1125 614 65520
-570 1140 614 65520
-542 1153 614 65520
-514 1166 614 65520
-485 1178 614 65520
-456 1190 614 65520
-427 1201 614 65520
-398 1211 614 65520
-368 1220 614 65520
-338 1229 614 65520
-308 1237 614 65520
-278 1244 614 65520
-247 1250 614 65520
-217 1256 614 65520
-186 1261 614 65520
-155 1265 614 65520
-124 1268 614 65520
-93 1271 614 65520
-62 1273 614 65520
-31 1274 614 65520
0 1275 614 65520
31 1274 614 65520
62 1273 614 65520
93 1271 614 65520
124 1268 614 65520
155 1265 614 65520
186 1261 614 65520
217 1256 614 65520
247 1250 614 65520
278 1244 614 65520
308 1237 614 65520
338 1229 614 65520
368 1220 614 65520
398 1211 614 65520
427 1201 614 65520
456 1190 614 65520
485 1178 614 65520
514 1166 614 65520
542 1153 614 65520
570 1140 614 65520
598 1125 614 65520
625 1110 614 65520
652 1095 614 65520
679 1078 614 65520
705 1061 614 65520
-731 1044 590 65520
-705 1061 590 65520
-679 1078 590 65520
-148 249 134 65520
-127 226 120 65520
-598 1125 590 65520
-570 1140 590 65520
-542 1153 590 65520
-514 1166 590 65520
-485 1178 590 65520
-456 1190 590 65520
-427 1201 590 65520
-398 1211 590 65520
-368 1220 590 65520
-338 1229 590 65520
-308 1237 590 65520
-278 1244 590 65520
-247 1250 590 65520
-217 1256 590 65520
-186 1261 590 65520
-155 1265 590 65520
-124 1268 590 65520
-93 1271 590 65520
-62 1273 590 65520
-31 1274 590 65520
0 1275 590 65520
31 1274 590 65520
62 1273 590 65520
93 1271 590 65520
124 1268 590 65520
155 1265 590 65520
186 1261 590 65520
217 1256 590 65520
247 1250 590 65520
278 1244 590 65520
308 1237 590 65520
338 1229 590 65520
368 1220 590 65520
398 1211 590 65520
427 1201 590 65520
456 1190 590 65520
485 1178 590 65520
514 1166 590 65520
542 1153 590 65520
570 1140 590 65520
598 1125 590 65520
625 1110 590 65520
652 1095 590 65520
679 1078 590 65520
705 1061 590 65520
-154 221 120 65520
-152 229 122 65520
-138 220 115 65520
-148 249 128 65520
-157 278 142 65520
-598 1125 566 65520
-570 1140 566 65520
-542 1153 566 65520
-514 1166 566 65520
-485 1178 566 65520
-456 1190 566 65520
-427 1201 566 65520
-398 1211 566 65520
-368 1220 566 65520
-338 1229 566 65520
-308 1237 566 65520
-278 1244 566 65520
-247 1250 566 65520
-217 1256 566 65520
-186 1261 566 65520
-155 1265 566 65520
-124 1268 566 65520
-93 1271 566 65520
-62 1273 566 65520
-31 1274 566 65520
0 1275 566 65520
31 1274 566 65520
62 1273 566 65520
93 1271 566 65520
124 1268 566 65520
155 1265 566 65520
186 1261 566 65520
217 1256 566 65520
247 1250 566 65520
278 1244 566 65520
308 1237 566 65520
338 1229 566 65520
368 1220 566 65520
398 1211 566 65520
427 1201 566 65520
456 1190 566 65520
485 1178 566 65520
514 1166 566 65520
542 1153 566 65520
570 1140 566 65520
598 1125 566 65520
625 1110 566 65520
652 1095 566 65520
679 1078 566 65520
705 1061 566 65520
-220 315 163 65520
-188 283 144 65520
-162 258 129 65520
-153 257 127 65520
-169 300 146 65520
-598 1125 542 65520
-570 1140 542 65520
-542 1153 542 65520
-514 1166 542 65520
-485 1178 542 65520
-179 466 212 65520
-427 1201 542 65520
-85 261 117 65520
-98 325 144 65520
-74 269 119 65520
-82 329 144 65520
-93 419 183 65520
-96 485 210 65520
-58 339 146 65520
-65 445 191 65520
-55 451 193 65520
-124 1268 542 65520
-93 1271 542 65520
-62 1273 542 65520
-31 1274 542 65520
0 1275 542 65520
31 1274 542 65520
62 1273 542 65520
93 1271 542 65520
124 1268 542 65520
155 1265 542 65520
186 1261 542 65520
217 1256 542 65520
247 1250 542 65520
278 1244 542 65520
308 1237 542 65520
338 1229 542 65520
368 1220 542 65520
398 1211 542 65520
427 1201 542 65520
456 1190 542 65520
485 1178 542 65520
514 1166 542 65520
542 1153 542 65520
570 1140 542 65520
598 1125 542 65520
625 1110 542 65520
652 1095 542 65520
679 1078 542 65520
705 1061 542 65520
-200 286 142 65520
-182 274 134 65520
-173 275 132 65520
-166 279 132 65520
-166 296 138 65520
-169 317 146 65520
-570 1140 518 65520
-542 1153 518 65520
-514 1166 518 65520
-167 406 178 65520
-456 1190 518 65520
-124 348 150 65520
-117 356 152 65520
-115 382 162 65520
-111 404 170 65520
-108 436 183 65520
-98 439 183 65520
-89 451 187 65520
-72 418 172 65520
-65 440 180 65520
-49 401 164 65520
-48 497 203 65520
-47 653 266 65520
-21 439 178 65520
-9 399 162 65520
0 1275 518 65520
31 1274 518 65520
62 1273 518 65520
93 1271 518 65520
124 1268 518 65520
155 1265 518 65520
186 1261 518 65520
217 1256 518 65520
247 1250 518 65520
278 1244 518 65520
308 1237 518 65520
338 1229 518 65520
368 1220 518 65520
398 1211 518 65520
427 1201 518 65520
456 1190 518 65520
485 1178 518 65520
514 1166 518 65520
542 1153 518 65520
570 1140 518 65520
598 1125 518 65520
625 1110 518 65520
652 1095 518 65520
679 1078 518 65520
705 1061 518 65520
-174 249 118 65520
-182 274 127 65520
-170 270 124 65520
-151 253 114 65520
-137 243 108 65520
-150 282 124 65520
-172 344 149 65520
-161 343 147 65520
-153 347 147 65520
-140 342 143 65520
-120 312 129 65520
-130 367 151 65520
-124 379 155 65520
-118 392 158 65520
-107 390 156 65520
-100 402 160 65520
-91 409 162 65520
-85 431 170 65520
-69 404 158 65520
-59 400 156 65520
-49 406 158 65520
-48 492 191 65520
-37 508 197 65520
-21 449 174 65520
-10 419 162 65520
0 445 172 65520
10 434 168 65520
21 439 170 65520
28 393 153 65520
48 497 193 65520
155 1265 494 65520
186 1261 494 65520
217 1256 494 65520
247 1250 494 65520
278 1244 494 65520
308 1237 494 65520
338 1229 494 65520
368 1220 494 65520
398 1211 494 65520
427 1201 494 65520
456 1190 494 65520
485 1178 494 65520
514 1166 494 65520
542 1153 494 65520
570 1140 494 65520
598 1125 494 65520
625 1110 494 65520
652 1095 494 65520
679 1078 494 65520
705 1061 494 65520
-183 262 117 65520
-174 262 115 65520
-178 283 123 65520
-153 257 110 65520
-157 278 117 65520
-166 313 130 65520
-141 281 115 65520
-142 303 123 65520
-141 320 128 65520
-129 314 125 65520
-123 322 127 65520
-120 339 132 65520
-112 341 132 65520
-105 349 134 65520
-100 366 139 65520
-91 368 139 65520
-82 370 139 65520
-76 387 145 65520
-68 394 147 65520
-59 400 149 65520
-51 416 154 65520
-42 437 161 65520
-31 433 160 65520
-21 434 160 65520
-10 434 160 65520
0 455 167 65520
11 459 169 65520
22 454 167 65520
34 473 174 65520
47 487 180 65520
62 511 189 65520
70 479 178 65520
86 502 187 65520
247 1250 469 65520
278 1244 469 65520
308 1237 469 65520
338 1229 469 65520
368 1220 469 65520
398 1211 469 65520
427 1201 469 65520
456 1190 469 65520
485 1178 469 65520
514 1166 469 65520
542 1153 469 65520
570 1140 469 65520
598 1125 469 65520
625 1110 469 65520
652 1095 469 65520
679 1078 469 65520
705 1061 469 65520
-172 245 104 65520
-152 229 95 65520
-151 241 99 65520
-151 253 102 65520
-159 283 113 65520
-169 317 125 65520
-141 281 109 65520
-144 307 118 65520
-141 320 122 65520
-129 314 118 65520
-125 326 122 65520
-120 339 125 65520
-112 341 125 65520
-104 344 125 65520
-99 361 130 65520
-90 363 130 65520
-81 365 130 65520
-73 372 132 65520
-64 374 132 65520
-56 385 135 65520
-48 397 139 65520
-39 403 141 65520
-30 413 144 65520
-20 419 146 65520
-10 424 148 65520
0 445 155 65520
11 454 158 65520
21 444 155 65520
34 463 162 65520
47 482 169 65520
59 486 170 65520
70 479 169 65520
87 507 179 65520
99 500 177 65520
119 536 191 65520
129 519 186 65520
143 520 188 65520
156 516 188 65520
159 484 177 65520
427 1201 444 65520
456 1190 444 65520
485 1178 444 65520
514 1166 444 65520
542 1153 444 65520
570 1140 444 65520
598 1125 444 65520
625 1110 444 65520
652 1095 444 65520
679 1078 444 65520
705 1061 444 65520
-189 270 108 65520
-160 241 95 65520
-154 245 95 65520
-148 249 95 65520
-147 261 98 65520
-173 326 121 65520
-158 317 116 65520
-144 307 111 65520
-139 315 113 65520
-133 323 115 65520
-129 336 118 65520
-122 343 120 65520
-112 341 118 65520
-108 358 123 65520
-100 366 124 65520
-91 368 124 65520
-85 380 128 65520
-75 382 128 65520
-66 384 128 65520
-58 395 131 65520
-49 401 133 65520
-40 413 136 65520
-30 413 136 65520
-20 409 134 65520
-10 419 138 65520
0 425 139 65520
10 434 143 65520
21 439 144 65520
32 448 147 65520
45 462 152 65520
56 456 151 65520
67 455 151 65520
88 512 171 65520
102 519 174 65520
135 605 203 65520
127 509 172 65520
143 520 177 65520
158 526 180 65520
156 474 164 65520
181 508 177 65520
202 527 185 65520
209 508 180 65520
514 1166 419 65520
542 1153 419 65520
570 1140 419 65520
598 1125 419 65520
625 1110 419 65520
652 1095 419 65520
679 1078 419 65520
705 1061 419 65520
-180 258 97 65520
-152 229 84 65520
-157 249 91 65520
-143 240 86 65520
-144 257 91 65520
-161 304 106 65520
-156 312 108 65520
-144 307 105 65520
-137 311 105 65520
-137 332 111 65520
-130 340 112 65520
-122 343 112 65520
-114 346 112 65520
-108 358 115 65520
-100 366 117 65520
-91 368 117 65520
-82 370 117 65520
-76 387 122 65520
-67 389 122 65520
-58 395 123 65520
-49 406 126 65520
-40 417 129 65520
-30 418 129 65520
-20 419 129 65520
-10 419 129 65520
0 435 134 65520
10 439 135 65520
21 444 137 65520
32 448 139 65520
44 457 142 65520
56 456 142 65520
67 455 142 65520
94 546 171 65520
115 583 183 65520
122 546 173 65520
119 480 152 65520
138 501 160 65520
154 512 165 65520
168 512 166 65520
187 527 173 65520
207 541 179 65520
221 536 179 65520
246 558 188 65520
263 560 191 65520
259 518 179 65520
598 1125 393 65520
625 1110 393 65520
652 1095 393 65520
679 1078 393 65520
705 1061 393 65520
-160 229 80 65520
-157 237 82 65520
-149 236 80 65520
-145 244 82 65520
-152 270 89 65520
-154 291 95 65520
-149 299 96 65520
-144 307 98 65520
-141 320 101 65520
-137 332 104 65520
-129 336 104 65520
-122 343 105 65520
-117 356 108 65520
-108 358 108 65520
-102 371 111 65520
-91 368 109 65520
-85 380 112 65520
-76 387 114 65520
-67 389 114 65520
-58 395 115 65520
-49 406 118 65520
-40 417 121 65520
-30 418 121 65520
-20 424 122 65520
-10 429 124 65520
0 440 127 65520
10 439 127 65520
21 444 128 65520
33 458 132 65520
44 457 132 65520
57 466 135 65520
67 455 132 65520
95 551 161 65520
116 588 173 65520
117 526 156 65520
119 480 143 65520
134 486 145 65520
145 483 145 65520
162 493 150 65520
182 513 157 65520
198 518 160 65520
213 517 161 65520
228 516 163 65520
249 529 169 65520
270 540 174 65520
269 507 166 65520
265 470 156 65520
652 1095 368 65520
679 1078 368 65520
705 1061 368 65520
-160 229 75 65520
-152 229 73 65520
-149 236 75 65520
-143 240 75 65520
-147 261 80 65520
-150 282 86 65520
-147 295 88 65520
-140 298 88 65520
-139 315 92 65520
-135 328 95 65520
-129 336 96 65520
-120 339 96 65520
-117 356 100 65520
-108 358 100 65520
-100 366 102 65520
-91 368 102 65520
-83 375 103 65520
-74 377 103 65520
-67 389 106 65520
-59 400 108 65520
-49 406 110 65520
-40 413 111 65520
-30 413 111 65520
-20 424 114 65520
-10 434 116 65520
0 440 118 65520
10 444 119 65520
21 449 121 65520
33 453 122 65520
45 462 125 65520
57 471 127 65520
65 440 119 65520
93 541 147 65520
112 568 155 65520
125 561 154 65520
120 485 134 65520
138 501 139 65520
150 497 139 65520
165 503 142 65520
184 518 147 65520
200 522 150 65520
217 526 153 65520
228 516 151 65520
251 533 158 65520
257 514 154 65520
262 494 150 65520
274 487 150 65520
322 541 169 65520
319 507 161 65520
705 1061 342 65520
-166 237 72 65520
-154 233 69 65520
-151 241 70 65520
-145 244 70 65520
-147 261 74 65520
-154 291 82 65520
-156 312 87 65520
-144 307 84 65520
-143 324 88 65520
-137 332 89 65520
-134 350 93 65520
-122 343 90 65520
-118 360 94 65520
-109 363 94 65520
-103 375 96 65520
-94 378 96 65520
-85 380 96 65520
-75 382 96 65520
-68 394 99 65520
-59 405 101 65520
-50 411 103 65520
-40 413 103 65520
-30 418 104 65520
-21 429 106 65520
-10 429 106 65520
0 435 108 65520
10 449 111 65520
22 454 113 65520
33 458 114 65520
44 457 114 65520
57 471 118 65520
67 455 114 65520
95 551 139 65520
126 637 161 65520
133 595 151 65520
119 480 123 65520
138 501 129 65520
153 507 131 65520
168 512 134 65520
186 522 138 65520
204 532 141 65520
215 522 140 65520
234 530 144 65520
257 547 150 65520
266 532 147 65520
272 512 144 65520
309 548 156 65520
322 541 156 65520
333 528 155 65520
387 583 174 65520
-172 245 68 65520
-166 249 68 65520
-151 241 65 65520
-143 240 63 65520
-152 270 70 65520
-159 300 77 65520
-161 321 82 65520
-146 312 78 65520
-143 324 81 65520
-137 332 82 65520
-132 345 84 65520
-127 357 86 65520
-118 360 86 65520
-109 363 86 65520
-100 366 86 65520
-93 373 87 65520
-85 380 89 65520
-76 387 90 65520
-68 394 91 65520
-59 400 92 65520
-50 411 94 65520
-40 417 95 65520
-30 418 95 65520
-21 429 98 65520
-10 434 99 65520
0 440 100 65520
10 439 100 65520
21 449 102 65520
33 458 105 65520
45 462 106 65520
57 471 108 65520
67 455 105 65520
97 561 130 65520
120 608 141 65520
130 585 137 65520
118 475 111 65520
138 501 118 65520
154 512 122 65520
167 508 122 65520
186 522 126 65520
204 532 130 65520
215 522 129 65520
236 535 133 65520
255 542 137 65520
273 545 139 65520
284 534 138 65520
304 540 141 65520
309 519 138 65520
354 562 151 65520
398 599 164 65520
-172 245 62 65520
-177 266 66 65520
-149 236 58 65520
-153 257 62 65520
-149 265 63 65520
-150 282 66 65520
-156 312 72 65520
-144 307 70 65520
-145 329 74 65520
-137 332 74 65520
-130 340 75 65520
-124 348 76 65520
-117 356 77 65520
-108 358 77 65520
-100 366 79 65520
-93 373 80 65520
-85 380 81 65520
-76 387 82 65520
-68 394 83 65520
-58 395 83 65520
-49 406 85 65520
-40 417 87 65520
-30 418 87 65520
-20 424 88 65520
-10 434 90 65520
0 445 92 65520
10 444 92 65520
22 454 94 65520
32 443 92 65520
44 457 95 65520
57 466 97 65520
67 455 95 65520
96 556 117 65520
117 593 125 65520
137 614 130 65520
118 475 101 65520
135 491 106 65520
151 502 109 65520
167 508 111 65520
184 518 114 65520
200 522 116 65520
213 517 116 65520
234 530 120 65520
253 538 123 65520
273 545 126 65520
284 534 125 65520
304 540 128 65520
327 549 133 65520
349 554 136 65520
365 549 137 65520
-172 245 56 65520
-163 245 55 65520
-154 245 54 65520
-174 292 63 65520
-157 278 59 65520
-154 291 61 65520
-152 304 63 65520
-144 307 63 65520
-143 324 66 65520
-137 332 67 65520
-130 340 68 65520
-122 343 68 65520
-115 351 69 65520
-111 368 72 65520
-102 371 72 65520
-94 378 73 65520
-86 385 74 65520
-76 387 74 65520
-68 394 74 65520
-59 400 75 65520
-49 406 76 65520
-40 417 78 65520
-30 418 78 65520
-21 434 81 65520
-10 439 82 65520
0 440 82 65520
11 454 85 65520
22 454 85 65520
32 448 84 65520
44 457 86 65520
57 466 88 65520
67 455 86 65520
95 551 104 65520
124 627 119 65520
145 648 124 65520
122 489 94 65520
138 501 97 65520
154 512 100 65520
167 508 100 65520
182 513 102 65520
198 518 103 65520
215 522 105 65520
234 530 108 65520
255 542 112 65520
273 545 114 65520
298 560 118 65520
314 557 119 65520
337 566 123 65520
354 562 124 65520
392 591 133 65520
-163 233 47 65520
-152 229 45 65520
-151 241 47 65520
-143 240 46 65520
-137 243 46 65520
-150 282 53 65520
-156 312 58 65520
-151 321 59 65520
-141 320 58 65520
-139 337 60 65520
-134 350 62 65520
-122 343 60 65520
-117 356 62 65520
-109 363 63 65520
-102 371 64 65520
-94 378 65 65520
-87 390 66 65520
-77 392 66 65520
-68 394 66 65520
-58 395 66 65520
-49 406 68 65520
-41 422 70 65520
-31 423 70 65520
-21 434 72 65520
-10 434 72 65520
0 435 72 65520
10 439 73 65520
21 444 74 65520
33 458 76 65520
45 462 77 65520
57 466 78 65520
67 460 77 65520
97 566 95 65520
116 588 100 65520
131 590 100 65520
118 475 81 65520
136 496 85 65520
154 512 89 65520
168 512 90 65520
184 518 91 65520
198 518 92 65520
219 531 95 65520
240 544 99 65520
255 542 100 65520
282 563 105 65520
300 565 106 65520
319 566 108 65520
340 571 110 65520
357 566 111 65520
395 595 119 65520
-174 249 44 65520
-166 249 43 65520
-162 258 44 65520
-145 244 41 65520
-147 261 43 65520
-147 278 46 65520
-158 317 51 65520
-153 325 52 65520
-147 333 53 65520
-139 337 53 65520
-134 350 54 65520
-125 353 54 65520
-118 360 55 65520
-109 363 55 65520
-102 371 56 65520
-95 383 57 65520
-87 390 58 65520
-77 392 58 65520
-68 394 58 65520
-58 395 58 65520
-51 416 61 65520
-41 422 62 65520
-31 423 62 65520
-21 429 62 65520
-10 429 62 65520
0 440 64 65520
10 444 65 65520
21 449 65 65520
33 458 67 65520
45 467 68 65520
58 476 70 65520
68 464 68 65520
96 556 82 65520
111 564 83 65520
127 570 85 65520
119 480 72 65520
135 491 74 65520
153 507 77 65520
170 517 79 65520
187 527 81 65520
202 527 82 65520
222 540 85 65520
238 539 86 65520
255 542 87 65520
291 581 94 65520
288 543 89 65520
311 553 92 65520
350 588 100 65520
365 579 100 65520
359 541 94 65520
-160 229 35 65520
-154 233 35 65520
-159 253 37 65520
-138 231 33 65520
-144 257 36 65520
-154 291 41 65520
-161 321 45 65520
-149 316 43 65520
-145 329 45 65520
-137 332 45 65520
-132 345 46 65520
-125 353 46 65520
-118 360 47 65520
-109 363 47 65520
-103 375 48 65520
-95 383 49 65520
-85 380 48 65520
-77 392 50 65520
-68 399 50 65520
-59 405 51 65520
-51 416 52 65520
-40 417 52 65520
-30 418 52 65520
-21 429 53 65520
-10 439 55 65520
0 445 55 65520
11 454 57 65520
21 449 56 65520
33 458 57 65520
46 472 59 65520
58 476 60 65520
69 469 59 65520
97 561 71 65520
124 627 80 65520
139 624 80 65520
120 485 62 65520
138 501 65 65520
154 512 67 65520
170 517 68 65520
184 518 68 65520
206 536 72 65520
222 540 73 65520
234 530 72 65520
251 533 73 65520
277 554 77 65520
276 520 73 65520
314 557 80 65520
335 562 82 65520
367 583 86 65520
370 558 83 65520
-169 241 30 65520
-171 258 32 65520
-154 245 30 65520
-145 244 29 65520
-149 265 31 65520
-157 295 35 65520
-161 321 37 65520
-151 321 37 65520
-145 329 37 65520
-139 337 38 65520
-132 345 38 65520
-127 357 39 65520
-120 365 40 65520
-112 373 40 65520
-103 375 40 65520
-95 383 41 65520
-85 380 40 65520
-76 387 41 65520
-68 399 42 65520
-59 405 42 65520
-50 411 43 65520
-40 417 43 65520
-31 428 44 65520
-21 434 45 65520
-10 439 45 65520
0 440 45 65520
10 449 47 65520
22 459 48 65520
34 473 49 65520
45 467 49 65520
57 471 49 65520
69 469 49 65520
93 541 57 65520
116 588 62 65520
143 644 68 65520
125 504 54 65520
139 506 54 65520
156 516 56 65520
168 512 56 65520
184 518 57 65520
200 522 58 65520
217 526 59 65520
234 530 60 65520
249 529 61 65520
268 536 62 65520
291 547 64 65520
311 553 66 65520
332 558 67 65520
351 558 68 65520
395 595 74 65520
-166 237 24 65520
-168 254 25 65520
-162 258 25 65520
-153 257 25 65520
-152 270 25 65520
-152 286 27 65520
-161 321 30 65520
-153 325 30 65520
-145 329 30 65520
-139 337 30 65520
-132 345 30 65520
-127 357 31 65520
-120 365 32 65520
-111 368 32 65520
-103 375 32 65520
-94 378 32 65520
-86 385 33 65520
-77 392 33 65520
-68 399 33 65520
-59 405 34 65520
-50 411 34 65520
-40 417 35 65520
-31 433 36 65520
-21 439 36 65520
-10 444 37 65520
0 440 36 65520
10 449 37 65520
22 459 38 65520
34 468 39 65520
45 467 39 65520
58 476 40 65520
69 469 39 65520
96 556 47 65520
124 627 53 65520
142 639 54 65520
127 509 43 65520
138 501 43 65520
157 521 45 65520
173 527 46 65520
196 551 48 65520
209 546 48 65520
221 536 48 65520
240 544 49 65520
255 542 50 65520
273 545 51 65520
295 556 52 65520
311 553 53 65520
340 571 55 65520
375 596 58 65520
379 570 57 65520
-169 241 18 65520
-154 233 17 65520
-159 253 18 65520
-153 257 18 65520
-152 270 19 65520
-150 282 20 65520
-152 304 21 65520
-144 307 21 65520
-145 329 22 65520
-139 337 22 65520
-134 350 23 65520
-127 357 23 65520
-120 365 24 65520
-109 363 23 65520
-104 380 24 65520
-95 383 24 65520
-87 390 25 65520
-77 392 25 65520
-69 404 25 65520
-61 415 26 65520
-50 411 26 65520
-40 417 26 65520
-31 428 26 65520
-21 429 26 65520
-10 439 27 65520
0 445 27 65520
10 444 27 65520
22 459 28 65520
33 458 28 65520
45 462 29 65520
58 476 30 65520
70 474 30 65520
95 551 35 65520
110 559 35 65520
134 600 38 65520
125 504 32 65520
138 501 32 65520
154 512 33 65520
173 527 34 65520
192 541 36 65520
204 532 35 65520
221 536 36 65520
240 544 37 65520
261 556 38 65520
286 572 40 65520
295 556 39 65520
311 553 39 65520
345 579 42 65520
349 554 41 65520
387 583 43 65520
-157 225 11 65520
-154 233 11 65520
-159 253 12 65520
-158 266 12 65520
-154 274 13 65520
-150 282 13 65520
-156 312 14 65520
-146 312 14 65520
-147 333 15 65520
-142 346 15 65520
-136 354 15 65520
-127 357 15 65520
-120 365 16 65520
-111 368 16 65520
-104 380 16 65520
-94 378 16 65520
-86 385 16 65520
-78 397 16 65520
-69 404 17 65520
-60 410 17 65520
-50 411 17 65520
-41 422 17 65520
-32 438 18 65520
-21 434 18 65520
-10 444 18 65520
0 440 18 65520
10 449 18 65520
22 459 19 65520
34 468 19 65520
46 472 19 65520
58 476 20 65520
70 474 20 65520
95 551 23 65520
120 608 25 65520
139 624 26 65520
125 504 21 65520
140 510 22 65520
156 516 22 65520
171 522 23 65520
192 541 24 65520
207 541 24 65520
224 545 24 65520
248 562 25 65520
291 619 28 65520
304 608 28 65520
307 578 27 65520
306 544 26 65520
320 536 26 65520
362 575 28 65520
384 578 29 65520
-154 221 5 65520
-152 229 5 65520
-151 241 5 65520
-158 266 6 65520
-161 287 6 65520
-154 291 6 65520
-161 321 7 65520
-149 316 7 65520
-145 329 7 65520
-135 328 7 65520
-130 340 7 65520
-127 357 7 65520
-118 360 7 65520
-112 373 8 65520
-106 385 8 65520
-96 388 8 65520
-87 390 8 65520
-78 397 8 65520
-69 404 8 65520
-60 410 8 65520
-51 416 8 65520
-41 422 8 65520
-31 428 9 65520
-21 434 9 65520
-10 439 9 65520
0 445 9 65520
11 459 9 65520
22 459 9 65520
34 463 9 65520
46 477 10 65520
59 486 10 65520
70 474 10 65520
93 541 11 65520
116 588 12 65520
126 566 12 65520
127 509 10 65520
140 510 11 65520
157 521 11 65520
174 531 11 65520
187 527 11 65520
206 536 12 65520
217 526 11 65520
246 558 12 65520
263 560 12 65520
277 554 12 65520
298 560 13 65520
301 535 12 65520
337 566 13 65520
370 588 14 65520
381 574 14 65520
-163 233 0 65520
-171 258 0 65520
-162 258 0 65520
-153 257 0 65520
-154 274 0 65520
-150 282 0 65520
-161 321 0 65520
-151 321 0 65520
-145 329 0 65520
-131 318 0 65520
-130 340 0 65520
-127 357 0 65520
-118 360 0 65520
-111 368 0 65520
-104 380 0 65520
-96 388 0 65520
-88 395 0 65520
-79 402 0 65520
-69 404 0 65520
-61 415 0 65520
-51 416 0 65520
-41 422 0 65520
-31 433 0 65520
-21 439 0 65520
-10 439 0 65520
0 445 0 65520
11 454 0 65520
22 459 0 65520
34 473 0 65520
46 477 0 65520
58 476 0 65520
70 474 0 65520
92 537 0 65520
128 647 0 65520
140 629 0 65520
130 523 0 65520
143 520 0 65520
164 545 0 65520
174 531 0 65520
191 536 0 65520
209 546 0 65520
221 536 0 65520
244 553 0 65520
259 551 0 65520
282 563 0 65520
302 569 0 65520
306 544 0 65520
340 571 0 65520
373 592 0 65520
365 549 0 65520
-172 245 -6 65520
-154 233 -5 65520
-159 253 -6 65520
-158 266 -6 65520
-157 278 -6 65520
-150 282 -6 65520
-154 308 -7 65520
-151 321 -7 65520
-145 329 -7 65520
-144 351 -7 65520
-134 350 -7 65520
-127 357 -7 65520
-121 370 -8 65520
-111 368 -8 65520
-104 380 -8 65520
-95 383 -8 65520
-87 390 -8 65520
-78 397 -8 65520
-69 404 -8 65520
-61 415 -8 65520
-51 421 -8 65520
-41 427 -9 65520
-31 433 -9 65520
-21 439 -9 65520
-10 439 -9 65520
0 445 -9 65520
11 459 -9 65520
22 464 -9 65520
34 473 -9 65520
46 477 -10 65520
58 476 -10 65520
70 474 -10 65520
94 546 -11 65520
132 667 -14 65520
151 678 -14 65520
131 528 -11 65520
142 515 -11 65520
157 521 -11 65520
174 531 -11 65520
191 536 -11 65520
213 555 -12 65520
226 550 -12 65520
250 567 -12 65520
263 560 -12 65520
282 563 -13 65520
302 569 -13 65520
306 544 -13 65520
343 575 -14 65520
365 579 -14 65520
384 578 -14 65520
-169 241 -12 65520
-160 241 -12 65520
-154 245 -12 65520
-151 253 -12 65520
-147 261 -12 65520
-150 282 -13 65520
-152 304 -14 65520
-151 321 -14 65520
-145 329 -15 65520
-139 337 -15 65520
-134 350 -15 65520
-129 362 -16 65520
-123 375 -16 65520
-114 378 -16 65520
-104 380 -16 65520
-95 383 -16 65520
-87 390 -16 65520
-80 407 -17 65520
-71 413 -17 65520
-62 420 -17 65520
-51 421 -17 65520
-41 427 -18 65520
-32 438 -18 65520
-21 444 -18 65520
-10 444 -18 65520
0 450 -18 65520
11 459 -19 65520
22 464 -19 65520
35 478 -20 65520
46 472 -19 65520
58 476 -20 65520
70 479 -20 65520
90 522 -22 65520
128 647 -27 65520
147 658 -28 65520
133 533 -23 65520
140 510 -22 65520
156 516 -22 65520
171 522 -23 65520
194 546 -24 65520
215 560 -25 65520
228 554 -25 65520
248 562 -25 65520
255 542 -25 65520
277 554 -25 65520
300 565 -26 65520
316 561 -27 65520
337 566 -27 65520
373 592 -29 65520
387 583 -29 65520
-160 229 -17 65520
-160 241 -18 65520
-159 253 -18 65520
-174 292 -21 65520
-186 331 -23 65520
-187 353 -25 65520
-170 339 -23 65520
-157 334 -23 65520
-147 333 -22 65520
-139 337 -22 65520
-136 354 -23 65520
-127 357 -23 65520
-121 370 -24 65520
-114 378 -24 65520
-104 380 -24 65520
-96 388 -25 65520
-89 400 -25 65520
-79 402 -25 65520
-69 404 -25 65520
-61 415 -26 65520
-52 426 -26 65520
-41 427 -26 65520
-32 438 -27 65520
-21 444 -27 65520
-11 454 -28 65520
0 460 -28 65520
11 459 -28 65520
22 469 -29 65520
35 478 -30 65520
46 477 -30 65520
59 481 -30 65520
71 484 -30 65520
91 532 -33 65520
132 667 -42 65520
128 575 -37 65520
127 509 -32 65520
143 520 -33 65520
157 521 -34 65520
170 517 -34 65520
196 551 -36 65520
218 569 -38 65520
243 591 -40 65520
250 567 -38 65520
268 570 -39 65520
282 563 -39 65520
307 578 -41 65520
333 592 -42 65520
348 584 -42 65520
394 626 -46 65520
381 574 -43 65520
-174 249 -25 65520
-171 258 -25 65520
-159 253 -25 65520
-215 360 -35 65520
-206 365 -35 65520
-173 326 -30 65520
-161 321 -30 65520
-153 325 -30 65520
-147 333 -30 65520
-140 342 -30 65520
-136 354 -31 65520
-127 357 -31 65520
-120 365 -32 65520
-115 382 -33 65520
-104 380 -33 65520
-95 383 -33 65520
-88 395 -33 65520
-78 397 -33 65520
-69 404 -34 65520
-61 415 -35 65520
-52 426 -35 65520
-41 427 -35 65520
-31 433 -36 65520
-21 434 -36 65520
-10 449 -37 65520
0 460 -38 65520
11 459 -38 65520
22 469 -39 65520
34 473 -39 65520
46 477 -40 65520
60 496 -41 65520
70 479 -40 65520
89 517 -43 65520
129 652 -55 65520
138 619 -53 65520
131 528 -45 65520
142 515 -44 65520
161 536 -46 65520
174 531 -46 65520
191 536 -47 65520
213 555 -49 65520
230 559 -50 65520
252 571 -52 65520
272 579 -53 65520
286 572 -53 65520
312 587 -55 65520
333 592 -56 65520
348 584 -56 65520
383 609 -60 65520
398 599 -60 65520
-172 245 -31 65520
-146 220 -27 65520
-149 236 -29 65520
-153 257 -31 65520
-161 287 -34 65520
-159 300 -35 65520
-156 312 -36 65520
-153 325 -37 65520
-149 338 -38 65520
-142 346 -39 65520
-137 359 -40 65520
-127 357 -39 65520
-118 360 -39 65520
-114 378 -41 65520
-106 385 -41 65520
-97 392 -42 65520
-89 400 -42 65520
-79 402 -42 65520
-71 413 -43 65520
-61 415 -43 65520
-52 426 -44 65520
-41 422 -44 65520
-32 438 -45 65520
-21 439 -45 65520
-10 449 -47 65520
0 450 -47 65520
11 459 -48 65520
22 469 -49 65520
34 473 -49 65520
46 477 -50 65520
59 481 -50 65520
70 479 -50 65520
91 527 -55 65520
134 681 -72 65520
147 658 -70 65520
131 528 -56 65520
143 520 -56 65520
160 531 -58 65520
176 536 -59 65520
194 546 -60 65520
213 555 -62 65520
228 554 -62 65520
250 567 -64 65520
272 579 -66 65520
291 581 -67 65520
312 587 -69 65520
331 588 -70 65520
332 558 -67 65520
365 579 -71 65520
379 570 -71 65520
-731 1044 -159 65520
-160 241 -36 65520
-181 287 -42 65520
-168 283 -41 65520
-157 278 -40 65520
-145 273 -38 65520
-136 272 -38 65520
-144 307 -42 65520
-147 333 -45 65520
-144 351 -47 65520
-136 354 -47 65520
-127 357 -47 65520
-121 370 -48 65520
-115 382 -50 65520
-106 385 -50 65520
-97 392 -50 65520
-90 405 -52 65520
-80 407 -52 65520
-71 413 -52 65520
-61 415 -52 65520
-51 421 -53 65520
-41 422 -53 65520
-31 428 -53 65520
-21 439 -55 65520
-10 449 -56 65520
0 455 -57 65520
11 459 -57 65520
22 469 -58 65520
34 473 -59 65520
46 477 -60 65520
60 496 -62 65520
70 479 -60 65520
91 532 -67 65520
128 647 -82 65520
146 653 -83 65520
130 523 -67 65520
143 520 -67 65520
161 536 -70 65520
178 541 -71 65520
192 541 -72 65520
213 555 -74 65520
226 550 -74 65520
250 567 -77 65520
263 560 -77 65520
288 576 -80 65520
314 591 -83 65520
328 583 -83 65520
337 566 -82 65520
362 575 -85 65520
390 587 -88 65520
-186 266 -47 65520
-163 245 -43 65520
-141 224 -38 65520
-135 227 -38 65520
-152 270 -45 65520
-154 291 -48 65520
-165 330 -54 65520
-161 343 -55 65520
-153 347 -55 65520
-144 351 -55 65520
-136 354 -55 65520
-129 362 -56 65520
-126 384 -59 65520
-115 382 -58 65520
-106 385 -58 65520
-97 392 -59 65520
-90 405 -60 65520
-81 412 -61 65520
-71 413 -61 65520
-61 415 -61 65520
-52 426 -62 65520
-42 432 -63 65520
-31 433 -63 65520
-21 444 -65 65520
-10 449 -65 65520
0 460 -67 65520
11 464 -67 65520
22 469 -68 65520
35 478 -70 65520
46 477 -70 65520
60 496 -73 65520
72 489 -72 65520
91 532 -78 65520
122 618 -92 65520
148 663 -99 65520
136 548 -82 65520
143 520 -78 65520
158 526 -80 65520
178 541 -83 65520
194 546 -84 65520
209 546 -85 65520
226 550 -86 65520
244 553 -88 65520
268 570 -92 65520
297 594 -97 65520
314 591 -97 65520
321 570 -95 65520
348 584 -99 65520
365 579 -100 65520
390 587 -102 65520
-151 217 -44 65520
-163 245 -49 65520
-189 300 -59 65520
-189 317 -61 65520
-171 304 -58 65520
-178 335 -63 65520
-165 330 -61 65520
-155 330 -60 65520
-149 338 -61 65520
-144 351 -63 65520
-136 354 -63 65520
-129 362 -64 65520
-123 375 -65 65520
-115 382 -66 65520
-106 385 -66 65520
-99 397 -68 65520
-91 409 -70 65520
-81 412 -70 65520
-71 413 -70 65520
-61 415 -70 65520
-53 431 -72 65520
-42 437 -73 65520
-31 433 -72 65520
-21 439 -73 65520
-10 439 -73 65520
0 450 -75 65520
11 459 -76 65520
22 464 -77 65520
35 478 -80 65520
47 482 -80 65520
60 496 -83 65520
73 494 -83 65520
91 527 -89 65520
140 711 -120 65520
153 688 -117 65520
134 538 -92 65520
143 520 -90 65520
160 531 -92 65520
181 550 -96 65520
197 555 -98 65520
213 555 -99 65520
232 563 -101 65520
250 567 -103 65520
266 565 -104 65520
286 572 -106 65520
300 565 -106 65520
333 592 -113 65520
337 566 -110 65520
383 609 -120 65520
431 649 -130 65520
-220 315 -72 65520
-179 270 -60 65520
-191 304 -67 65520
-156 261 -57 65520
-134 239 -51 65520
-159 300 -63 65520
-154 308 -64 65520
-146 312 -64 65520
-149 338 -69 65520
-144 351 -71 65520
-139 364 -73 65520
-127 357 -71 65520
-121 370 -73 65520
-112 373 -73 65520
-106 385 -74 65520
-97 392 -75 65520
-89 400 -76 65520
-80 407 -77 65520
-71 413 -78 65520
-60 410 -77 65520
-51 416 -78 65520
-41 427 -80 65520
-32 448 -84 65520
-23 489 -91 65520
-12 524 -98 65520
0 580 -108 65520
14 589 -110 65520
23 479 -89 65520
35 478 -89 65520
47 487 -91 65520
60 496 -93 65520
73 494 -93 65520
91 527 -100 65520
135 686 -131 65520
163 731 -140 65520
137 553 -106 65520
144 525 -102 65520
163 540 -105 65520
181 550 -108 65520
199 560 -111 65520
215 560 -112 65520
234 568 -115 65520
250 567 -116 65520
272 579 -119 65520
299 599 -125 65520
305 573 -121 65520
333 592 -127 65520
348 584 -127 65520
404 643 -142 65520
403 608 -136 65520
-238 339 -86 65520
-210 316 -79 65520
-197 313 -76 65520
-145 244 -59 65520
-157 278 -66 65520
-150 282 -66 65520
-138 277 -64 65520
-149 316 -72 65520
-149 338 -76 65520
-142 346 -77 65520
-136 354 -79 65520
-132 372 -82 65520
-118 360 -79 65520
-109 363 -79 65520
-104 380 -82 65520
-100 402 -86 65520
-91 409 -87 65520
-81 412 -87 65520
-72 418 -88 65520
-64 435 -91 65520
-59 481 -100 65520
-53 547 -114 65520
-40 553 -115 65520
-27 559 -116 65520
-13 539 -112 65520
0 615 -127 65520
15 619 -128 65520
23 474 -98 65520
35 478 -99 65520
48 492 -102 65520
60 496 -103 65520
73 494 -103 65520
91 527 -111 65520
135 686 -145 65520
166 746 -159 65520
133 533 -114 65520
143 520 -112 65520
163 540 -117 65520
182 555 -121 65520
196 551 -121 65520
218 569 -126 65520
240 582 -130 65520
258 585 -133 65520
281 597 -137 65520
284 567 -132 65520
314 591 -139 65520
338 601 -143 65520
366 614 -148 65520
394 626 -153 65520
431 649 -162 65520
-166 237 -66 65520
-168 254 -69 65520
-151 241 -65 65520
-151 253 -67 65520
-137 243 -63 65520
-138 260 -67 65520
-136 272 -69 65520
-131 280 -70 65520
-139 315 -78 65520
-140 342 -84 65520
-130 340 -83 65520
-130 367 -89 65520
-124 379 -91 65520
-138 459 -109 65520
-127 462 -109 65520
-119 480 -113 65520
-104 468 -109 65520
-94 475 -110 65520
-86 502 -116 65520
-72 489 -113 65520
-60 496 -114 65520
-46 472 -108 65520
-33 458 -105 65520
-22 459 -105 65520
-11 469 -107 65520
0 480 -109 65520
11 464 -106 65520
23 474 -108 65520
35 483 -110 65520
48 492 -113 65520
62 506 -116 65520
73 499 -115 65520
89 517 -119 65520
120 608 -141 65520
142 639 -149 65520
135 543 -127 65520
143 520 -123 65520
164 545 -130 65520
182 555 -133 65520
201 565 -137 65520
220 574 -140 65520
241 587 -145 65520
256 580 -145 65520
274 583 -147 65520
284 567 -145 65520
314 591 -152 65520
333 592 -155 65520
368 618 -164 65520
391 621 -167 65520
401 603 -165 65520
-149 212 -64 65520
-154 233 -69 65520
-159 253 -74 65520
-133 223 -64 65520
-115 204 -58 65520
-131 247 -69 65520
-136 272 -75 65520
-136 289 -79 65520
-131 297 -80 65520
-135 328 -88 65520
-125 326 -87 65520
-122 343 -90 65520
-121 370 -96 65520
-137 454 -118 65520
-119 433 -111 65520
-68 276 -70 65520
-41 185 -47 65520
-80 407 -103 65520
-75 438 -110 65520
-59 405 -101 65520
-51 416 -104 65520
-41 422 -105 65520
-31 433 -108 65520
-22 454 -113 65520
-10 444 -110 65520
0 460 -114 65520
11 469 -116 65520
23 479 -119 65520
35 483 -120 65520
48 497 -124 65520
62 506 -126 65520
73 499 -125 65520
87 507 -128 65520
121 613 -155 65520
134 600 -152 65520
135 543 -139 65520
148 539 -139 65520
167 555 -144 65520
185 565 -147 65520
202 569 -150 65520
220 574 -152 65520
236 573 -154 65520
258 585 -159 65520
270 574 -157 65520
291 581 -161 65520
309 582 -164 65520
331 588 -167 65520
373 627 -181 65520
381 605 -177 65520
453 682 -203 65520
-731 1044 -342 65520
-705 1061 -342 65520
-149 236 -75 65520
-135 227 -71 65520
-137 243 -75 65520
-150 282 -86 65520
-161 321 -96 65520
-119 253 -75 65520
-125 283 -83 65520
-125 305 -88 65520
-118 308 -88 65520
-119 334 -95 65520
-112 341 -96 65520
-104 344 -96 65520
-99 361 -100 65520
-77 310 -86 65520
-59 268 -73 65520
-70 358 -98 65520
-64 374 -102 65520
-59 405 -110 65520
-54 441 -119 65520
-43 447 -121 65520
-33 453 -122 65520
-22 459 -123 65520
-11 459 -123 65520
0 460 -123 65520
11 474 -127 65520
23 489 -131 65520
35 488 -131 65520
48 497 -134 65520
62 511 -138 65520
73 499 -135 65520
87 507 -138 65520
122 618 -169 65520
135 605 -166 65520
133 533 -147 65520
148 539 -150 65520
164 545 -153 65520
184 560 -158 65520
201 565 -161 65520
220 574 -165 65520
232 563 -164 65520
258 585 -172 65520
278 592 -176 65520
295 590 -177 65520
319 600 -182 65520
333 592 -182 65520
350 588 -184 65520
399 634 -201 65520
439 662 -213 65520
-731 1044 -368 65520
-705 1061 -368 65520
-159 253 -86 65520
-133 223 -75 65520
-115 204 -67 65520
-126 238 -78 65520
-145 290 -93 65520
-151 321 -102 65520
-145 329 -104 65520
-121 295 -92 65520
-120 312 -96 65520
-114 320 -98 65520
-107 327 -99 65520
-104 344 -104 65520
-95 347 -104 65520
-72 291 -86 65520
-56 253 -75 65520
-58 294 -86 65520
-57 335 -98 65520
-56 380 -111 65520
-48 397 -115 65520
-36 373 -108 65520
-30 413 -119 65520
-23 479 -138 65520
-12 494 -143 65520
0 460 -132 65520
11 469 -135 65520
23 479 -138 65520
35 488 -141 65520
48 497 -144 65520
62 506 -147 65520
74 504 -147 65520
89 517 -151 65520
123 622 -183 65520
140 629 -186 65520
140 562 -167 65520
150 544 -163 65520
167 555 -167 65520
182 555 -169 65520
201 565 -173 65520
222 578 -179 65520
236 573 -179 65520
256 580 -183 65520
281 597 -190 65520
286 572 -184 65520
323 609 -199 65520
346 614 -203 65520
353 592 -199 65520
391 621 -212 65520
415 624 -216 65520
-731 1044 -393 65520
-149 224 -83 65520
-138 220 -80 65520
-122 206 -74 65520
-127 226 -80 65520
-126 238 -83 65520
-134 268 -92 65520
-138 294 -100 65520
-137 311 -105 65520
-125 305 -101 65520
-120 312 -103 65520
-107 301 -98 65520
-106 322 -105 65520
-99 330 -106 65520
-83 303 -97 65520
-62 252 -80 65520
-69 312 -98 65520
-66 333 -105 65520
-51 295 -92 65520
-47 321 -100 65520
-38 312 -97 65520
-35 363 -112 65520
-28 393 -122 65520
-20 409 -126 65520
-13 534 -165 65520
0 485 -149 65520
11 474 -146 65520
23 479 -148 65520
35 488 -151 65520
49 502 -156 65520
62 511 -159 65520
75 509 -159 65520
91 527 -165 65520
132 667 -210 65520
149 668 -211 65520
147 591 -188 65520
154 559 -179 65520
167 555 -179 65520
184 560 -182 65520
204 574 -188 65520
225 588 -194 65520
240 582 -194 65520
268 608 -205 65520
283 601 -205 65520
295 590 -203 65520
333 626 -219 65520
350 622 -220 65520
337 566 -203 65520
404 643 -234 65520
453 682 -253 65520
-731 1044 -419 65520
-705 1061 -419 65520
-138 220 -85 65520
-115 193 -73 65520
-117 209 -78 65520
-100 189 -70 65520
-98 196 -72 65520
-110 235 -85 65520
-115 260 -93 65520
-106 258 -92 65520
-107 280 -98 65520
-92 259 -90 65520
-93 284 -98 65520
-91 301 -103 65520
-77 279 -95 65520
-74 300 -101 65520
-70 317 -106 65520
-54 274 -92 65520
-47 275 -92 65520
-43 296 -98 65520
-43 352 -116 65520
-40 417 -138 65520
-25 354 -116 65520
-21 444 -146 65520
-12 509 -167 65520
0 500 -164 65520
12 524 -172 65520
23 479 -157 65520
35 478 -157 65520
49 507 -167 65520
62 506 -167 65520
75 514 -171 65520
90 522 -174 65520
124 627 -210 65520
142 639 -215 65520
136 548 -185 65520
154 559 -190 65520
167 555 -190 65520
184 560 -194 65520
207 584 -203 65520
227 592 -208 65520
245 596 -212 65520
266 603 -217 65520
289 615 -223 65520
304 608 -223 65520
321 604 -225 65520
350 622 -235 65520
368 618 -236 65520
394 626 -243 65520
453 682 -269 65520
-83 118 -50 65520
-121 183 -76 65520
-127 203 -83 65520
-115 193 -78 65520
-105 187 -74 65520
-117 220 -87 65520
-116 232 -90 65520
-102 217 -83 65520
-98 224 -85 65520
-78 189 -71 65520
-93 242 -90 65520
-93 263 -97 65520
-89 270 -99 65520
-86 287 -104 65520
-75 274 -99 65520
-70 281 -101 65520
-64 287 -102 65520
-53 269 -95 65520
-45 261 -92 65520
-40 276 -97 65520
-49 406 -142 65520
-37 383 -134 65520
-24 339 -118 65520
-21 439 -153 65520
-12 494 -172 65520
0 445 -155 65520
11 489 -170 65520
24 504 -176 65520
36 498 -174 65520
50 517 -181 65520
62 511 -179 65520
74 504 -177 65520
88 512 -181 65520
129 652 -231 65520
139 624 -223 65520
131 528 -189 65520
147 535 -193 65520
167 555 -202 65520
181 550 -202 65520
207 584 -216 65520
225 588 -219 65520
249 605 -228 65520
266 603 -230 65520
281 597 -230 65520
306 612 -238 65520
328 618 -244 65520
346 614 -245 65520
368 618 -250 65520
357 566 -233 65520
705 1061 -444 65520
-120 172 -77 65520
-154 233 -103 65520
-159 253 -110 65520
-133 223 -95 65520
-132 235 -99 65520
-122 229 -95 65520
-94 187 -77 65520
-85 180 -73 65520
-86 196 -79 65520
-95 231 -92 65520
-114 298 -117 65520
-88 249 -97 65520
-84 256 -99 65520
-93 311 -119 65520
-74 269 -103 65520
-71 286 -108 65520
-62 278 -104 65520
-58 294 -110 65520
-52 305 -114 65520
-54 370 -138 65520
-51 416 -154 65520
-35 363 -134 65520
-31 428 -158 65520
-21 439 -161 65520
-11 479 -176 65520
0 455 -167 65520
11 474 -174 65520
23 479 -176 65520
35 478 -176 65520
40 417 -154 65520
63 516 -191 65520
73 499 -185 65520
88 512 -191 65520
126 637 -239 65520
143 644 -242 65520
137 553 -209 65520
150 544 -207 65520
169 560 -215 65520
187 569 -220 65520
204 574 -224 65520
225 588 -231 65520
259 628 -250 65520
274 622 -250 65520
289 615 -250 65520
320 639 -263 65520
349 657 -274 65520
365 649 -274 65520
409 687 -294 65520
391 621 -270 65520
705 1061 -469 65520
-731 1044 -494 65520
-88 133 -62 65520
-103 165 -75 65520
-87 146 -65 65520
-83 148 -65 65520
-93 176 -77 65520
-98 196 -85 65520
-104 221 -94 65520
-96 219 -93 65520
-97 235 -98 65520
-107 280 -116 65520
-82 230 -94 65520
-74 227 -93 65520
-78 258 -104 65520
-70 255 -102 65520
-66 266 -106 65520
-61 273 -108 65520
-54 274 -108 65520
-60 349 -137 65520
-62 425 -166 65520
-49 401 -156 65520
-39 403 -156 65520
-33 458 -178 65520
-22 454 -176 65520
-11 474 -184 65520
0 460 -178 65520
11 479 -186 65520
23 484 -187 65520
37 513 -199 65520
43 447 -174 65520
60 496 -193 65520
74 504 -197 65520
91 527 -207 65520
130 657 -259 65520
148 663 -263 65520
139 557 -222 65520
152 554 -222 65520
171 569 -230 65520
187 569 -232 65520
207 584 -240 65520
227 592 -246 65520
238 577 -242 65520
264 599 -253 65520
289 615 -263 65520
313 625 -271 65520
347 653 -286 65520
353 627 -279 65520
378 635 -286 65520
394 626 -286 65520
705 1061 -494 65520
-77 110 -54 65520
-94 141 -69 65520
-109 173 -83 65520
-122 206 -97 65520
-107 191 -89 65520
-91 172 -79 65520
-107 214 -97 65520
-85 180 -81 65520
-78 178 -79 65520
-83 203 -89 65520
-78 205 -89 65520
-93 263 -113 65520
-85 261 -111 65520
-75 248 -105 65520
-65 236 -99 65520
-62 252 -105 65520
-56 253 -105 65520
-52 264 -109 65520
-51 300 -124 65520
-56 385 -158 65520
-51 421 -172 65520
-42 437 -178 65520
-32 448 -183 65520
-22 454 -185 65520
-11 479 -195 65520
0 470 -191 65520
11 489 -199 65520
24 504 -205 65520
39 538 -219 65520
49 502 -205 65520
61 501 -205 65520
75 509 -209 65520
91 527 -217 65520
128 647 -268 65520
147 658 -274 65520
140 562 -235 65520
155 563 -237 65520
176 583 -248 65520
187 569 -244 65520
214 602 -260 65520
229 597 -260 65520
243 591 -260 65520
278 631 -280 65520
285 606 -272 65520
306 612 -278 65520
338 635 -292 65520
429 762 -355 65520
565 949 -449 65520
679 1078 -518 65520
705 1061 -518 65520
-731 1044 -542 65520
-705 1061 -542 65520
-679 1078 -542 65520
-130 219 -108 65520
-85 152 -74 65520
-70 132 -63 65520
-85 169 -80 65520
-72 153 -72 65520
-88 201 -93 65520
-91 221 -102 65520
-89 233 -106 65520
-92 259 -117 65520
-90 275 -123 65520
-60 201 -89 65520
-58 212 -93 65520
-56 228 -100 65520
-52 234 -102 65520
-47 240 -104 65520
-47 275 -119 65520
-47 321 -138 65520
-49 401 -172 65520
-42 432 -185 65520
-32 448 -191 65520
-21 444 -189 65520
-11 459 -195 65520
0 470 -200 65520
12 499 -212 65520
24 504 -215 65520
36 503 -215 65520
50 512 -219 65520
63 516 -221 65520
77 524 -225 65520
92 537 -232 65520
136 691 -300 65520
150 673 -293 65520
139 557 -244 65520
154 559 -246 65520
176 583 -259 65520
192 584 -261 65520
213 598 -270 65520
234 611 -278 65520
251 610 -281 65520
276 626 -291 65520
281 597 -281 65520
293 585 -278 65520
333 626 -302 65520
346 614 -300 65520
473 794 -393 65520
679 1078 -542 65520
705 1061 -542 65520
-731 1044 -566 65520
-88 133 -71 65520
-95 152 -80 65520
-97 163 -84 65520
-88 156 -80 65520
-75 141 -71 65520
-80 160 -80 65520
-93 199 -97 65520
-100 228 -111 65520
-87 212 -102 65520
-71 186 -88 65520
-68 193 -91 65520
-62 189 -88 65520
-54 181 -84 65520
-58 212 -97 65520
-53 213 -97 65520
-47 214 -97 65520
-43 220 -100 65520
-40 236 -106 65520
-38 262 -117 65520
-40 332 -148 65520
-39 398 -177 65520
-32 443 -197 65520
-21 444 -197 65520
-10 424 -188 65520
0 460 -204 65520
12 499 -222 65520
24 504 -224 65520
37 513 -228 65520
50 517 -231 65520
64 526 -235 65520
77 524 -235 65520
92 537 -242 65520
141 716 -324 65520
155 697 -317 65520
140 562 -257 65520
158 573 -264 65520
171 569 -264 65520
187 569 -266 65520
209 588 -277 65520
229 597 -284 65520
257 624 -300 65520
276 626 -304 65520
293 624 -306 65520
304 608 -302 65520
333 626 -315 65520
368 653 -333 65520
389 652 -337 65520
679 1078 -566 65520
705 1061 -566 65520
-731 1044 -590 65520
-105 158 -88 65520
-87 139 -76 65520
-102 171 -92 65520
-142 252 -134 65520
-75 141 -74 65520
-62 125 -64 65520
-70 149 -76 65520
-78 178 -90 65520
-64 157 -78 65520
-64 168 -83 65520
-67 188 -92 65520
-62 189 -92 65520
-63 210 -101 65520
-57 207 -99 65520
-47 189 -90 65520
-44 200 -94 65520
-42 215 -101 65520
-36 211 -99 65520
-34 232 -108 65520
-31 258 -120 65520
-30 313 -145 65520
-30 413 -192 65520
-21 444 -206 65520
-10 419 -194 65520
0 450 -208 65520
12 499 -231 65520
25 514 -238 65520
37 513 -238 65520
50 517 -240 65520
64 526 -245 65520
78 534 -250 65520
93 541 -254 65520
120 608 -287 65520
135 605 -287 65520
140 562 -268 65520
158 573 -275 65520
171 569 -275 65520
188 574 -280 65520
214 602 -296 65520
232 606 -301 65520
253 614 -308 65520
300 681 -345 65520
364 773 -396 65520
347 692 -359 65520
389 732 -384 65520
353 627 -333 65520
652 1095 -590 65520
679 1078 -590 65520
705 1061 -590 65520
-731 1044 -614 65520
-705 1061 -614 65520
-130 207 -118 65520
-115 193 -108 65520
-132 235 -130 65520
-89 167 -91 65520
-62 125 -67 65520
-70 149 -79 65520
-80 182 -96 65520
-74 180 -93 65520
-66 172 -89 65520
-60 169 -86 65520
-59 180 -91 65520
-52 172 -86 65520
-50 183 -91 65520
-42 169 -84 65520
-38 170 -84 65520
-42 215 -105 65520
-37 216 -105 65520
-29 202 -98 65520
-24 203 -98 65520
-25 258 -125 65520
-20 279 -134 65520
-19 389 -187 65520
-9 384 -185 65520
0 460 -221 65520
11 484 -233 65520
24 499 -240 65520
38 518 -250 65520
50 512 -248 65520
64 526 -255 65520
78 529 -257 65520
92 537 -262 65520
112 568 -279 65520
136 609 -301 65520
137 553 -274 65520
163 592 -296 65520
173 574 -289 65520
199 607 -308 65520
211 593 -303 65520
249 648 -334 65520
259 628 -327 65520
320 727 -382 65520
357 760 -404 65520
362 724 -390 65520
598 1125 -614 65520
625 1110 -614 65520
652 1095 -614 65520
679 1078 -614 65520
705 1061 -614 65520
